65535,65535,65535,65535,65535,65535,65535,65535,65535,65535,65535,65535,65535,65535,65535,65535,65535,65535,65535,65535,65535,65535,65535,65535,65535,65535,1075,1074,1076,1082,1086,1084,65535,65535,65535,65535,65535,65535,65535,65535,65535,65535,65535,65535,65535,65535,65535,65535,65535,65535,65535,65535,65535,65535,65535,65535,65535,65535,65535,65535,65535,65535,65535,65535,65535,65535,65535,65535,65535,65535,65535,65535,65535,65535,65535,65535,65535,65535,65535,65535,65535,65535,65535,65535,65535,65535,65535,65535,65535,65535,65535,65535
65535,65535,65535,65535,65535,65535,65535,65535,65535,65535,65535,65535,65535,65535,65535,65535,65535,65535,65535,65535,65535,65535,65535,65535,65535,65535,1073,1070,1073,1078,1081,1078,1078,65535,65535,65535,65535,65535,65535,65535,65535,65535,65535,65535,65535,65535,65535,65535,65535,65535,65535,65535,65535,65535,65535,65535,65535,65535,65535,65535,65535,65535,65535,65535,65535,65535,65535,65535,65535,65535,65535,65535,65535,65535,65535,65535,65535,65535,65535,65535,65535,65535,65535,65535,65535,65535,65535,65535,65535,65535,65535,65535
65535,65535,65535,65535,65535,65535,65535,65535,65535,65535,65535,65535,65535,65535,65535,65535,65535,65535,65535,65535,65535,65535,65535,65535,65535,65535,1072,1069,1069,1072,1075,1075,1076,65535,65535,65535,65535,65535,65535,65535,65535,65535,65535,65535,65535,65535,65535,65535,65535,65535,65535,65535,65535,65535,65535,65535,65535,65535,65535,65535,65535,65535,65535,65535,65535,65535,65535,65535,65535,65535,65535,65535,65535,65535,65535,65535,65535,65535,65535,65535,65535,65535,65535,65535,65535,65535,65535,65535,65535,65535,65535,65535
65535,65535,65535,65535,65535,65535,65535,65535,65535,65535,65535,65535,65535,65535,65535,65535,65535,65535,65535,65535,65535,65535,65535,65535,65535,65535,1074,1066,1066,1066,1066,1073,1076,65535,65535,65535,65535,65535,65535,65535,65535,65535,65535,65535,65535,65535,65535,65535,65535,65535,65535,65535,65535,65535,65535,65535,65535,65535,65535,65535,65535,65535,65535,65535,65535,65535,65535,65535,65535,65535,65535,65535,65535,65535,65535,65535,65535,65535,65535,65535,65535,65535,65535,65535,65535,65535,65535,65535,65535,65535,65535,65535
65535,65535,65535,65535,65535,65535,65535,65535,65535,65535,65535,65535,65535,65535,65535,65535,65535,65535,65535,65535,65535,65535,65535,65535,65535,65535,1072,1066,1063,1061,1061,1072,1076,65535,65535,65535,65535,65535,65535,65535,65535,65535,65535,65535,65535,65535,65535,65535,65535,65535,65535,65535,65535,65535,65535,65535,65535,65535,65535,65535,65535,65535,65535,65535,65535,65535,65535,65535,65535,65535,65535,65535,65535,65535,65535,65535,65535,65535,65535,65535,65535,65535,65535,65535,65535,65535,65535,65535,65535,65535,65535,65535
65535,65535,65535,65535,65535,65535,65535,65535,65535,65535,65535,65535,65535,65535,65535,65535,65535,65535,65535,65535,65535,65535,65535,65535,65535,65535,1070,1064,1059,1053,1059,1074,1077,65535,65535,65535,65535,65535,65535,65535,65535,65535,65535,65535,65535,65535,65535,65535,65535,65535,65535,65535,65535,65535,65535,65535,65535,65535,65535,65535,65535,65535,65535,65535,65535,65535,65535,65535,65535,65535,65535,65535,65535,65535,65535,65535,65535,65535,65535,65535,65535,65535,65535,65535,65535,65535,65535,65535,65535,65535,65535,65535
65535,65535,65535,65535,65535,65535,65535,65535,65535,65535,65535,65535,65535,65535,65535,65535,65535,65535,65535,65535,65535,65535,65535,65535,65535,65535,1068,1062,1048,1044,1049,1061,1075,65535,65535,65535,65535,65535,65535,65535,65535,65535,65535,65535,65535,65535,65535,65535,65535,65535,65535,65535,65535,65535,65535,65535,65535,65535,65535,65535,65535,65535,65535,65535,65535,65535,65535,65535,65535,65535,65535,65535,65535,65535,65535,65535,65535,65535,65535,65535,65535,65535,65535,65535,65535,65535,65535,65535,65535,65535,65535,65535
65535,65535,65535,65535,65535,65535,65535,65535,65535,65535,65535,65535,65535,65535,65535,65535,65535,65535,65535,65535,65535,65535,65535,65535,65535,1067,1065,1056,1037,1035,1038,1050,1073,1078,1081,65535,65535,65535,65535,65535,65535,65535,65535,65535,65535,65535,65535,65535,65535,65535,65535,65535,65535,65535,65535,65535,65535,65535,65535,65535,65535,65535,65535,65535,65535,65535,65535,65535,65535,65535,65535,65535,65535,65535,65535,65535,65535,65535,65535,65535,65535,65535,65535,65535,65535,65535,65535,65535,65535,65535,65535,65535
65535,65535,65535,65535,65535,65535,65535,65535,65535,65535,65535,65535,65535,65535,65535,65535,65535,65535,65535,65535,65535,65535,65535,65535,1067,1065,1053,1042,1026,1027,1032,1047,1073,1077,1079,65535,65535,65535,65535,65535,65535,65535,65535,65535,65535,65535,65535,65535,65535,65535,65535,65535,65535,65535,65535,65535,65535,65535,65535,65535,65535,65535,65535,65535,65535,65535,65535,65535,65535,65535,65535,65535,65535,65535,65535,65535,65535,65535,65535,65535,65535,65535,65535,65535,65535,65535,65535,65535,65535,65535,65535,65535
65535,65535,65535,65535,65535,65535,65535,65535,65535,65535,65535,65535,65535,65535,65535,65535,65535,65535,65535,65535,65535,65535,65535,65535,1062,1059,1039,1028,1024,1026,1040,1061,1066,1079,1080,65535,65535,65535,65535,65535,65535,65535,65535,65535,65535,65535,65535,65535,65535,65535,65535,65535,65535,65535,65535,65535,65535,65535,65535,65535,65535,65535,65535,65535,65535,65535,65535,65535,65535,65535,65535,65535,65535,65535,65535,65535,65535,65535,65535,65535,65535,65535,65535,65535,65535,65535,65535,65535,65535,65535,65535,65535
65535,65535,65535,65535,65535,65535,65535,65535,65535,65535,65535,65535,65535,65535,65535,65535,65535,65535,65535,65535,65535,65535,65535,65535,1062,1059,1028,1024,1026,1039,1049,1065,1070,1077,1078,1078,1080,65535,65535,65535,65535,65535,65535,65535,65535,65535,65535,65535,65535,65535,65535,65535,65535,65535,65535,65535,65535,65535,65535,65535,65535,65535,65535,65535,65535,65535,65535,65535,65535,65535,65535,65535,65535,65535,65535,65535,65535,65535,65535,65535,65535,65535,65535,65535,65535,65535,65535,65535,65535,65535,65535,65535
65535,65535,65535,65535,65535,65535,65535,65535,65535,65535,65535,65535,65535,65535,65535,65535,65535,65535,65535,65535,65535,65535,65535,1062,1058,1050,1028,1021,1030,1040,1053,1061,1065,1072,1073,1073,1076,65535,65535,65535,65535,65535,65535,65535,65535,65535,65535,65535,65535,65535,65535,65535,65535,65535,65535,65535,65535,65535,65535,65535,65535,65535,65535,65535,65535,65535,65535,65535,65535,65535,65535,65535,65535,65535,65535,65535,65535,65535,65535,65535,65535,65535,65535,65535,65535,65535,65535,65535,65535,65535,65535,65535
65535,65535,65535,65535,65535,65535,65535,65535,65535,65535,65535,65535,65535,65535,65535,65535,65535,65535,65535,65535,65535,65535,1059,1058,1052,1044,1020,1021,1030,1040,1047,1052,1058,1063,1068,1068,1074,1079,65535,65535,65535,65535,65535,65535,65535,65535,65535,65535,65535,65535,65535,65535,65535,65535,65535,65535,65535,65535,65535,65535,65535,65535,65535,65535,65535,65535,65535,65535,65535,65535,65535,65535,65535,65535,65535,65535,65535,65535,65535,65535,65535,65535,65535,65535,65535,65535,65535,65535,65535,65535,65535,65535
65535,65535,65535,65535,65535,65535,65535,65535,65535,65535,65535,65535,65535,65535,65535,65535,65535,65535,65535,65535,65535,1059,1055,1051,1046,1038,1011,1018,1030,1040,1045,1056,1064,1068,1071,1074,1078,65535,65535,65535,65535,65535,65535,65535,65535,65535,65535,65535,65535,65535,65535,65535,65535,65535,65535,65535,65535,65535,65535,65535,65535,65535,65535,65535,65535,65535,65535,65535,65535,65535,65535,65535,65535,65535,65535,65535,65535,65535,65535,65535,65535,65535,65535,65535,65535,65535,65535,65535,65535,65535,65535,65535
65535,65535,65535,65535,65535,65535,65535,65535,65535,65535,65535,65535,65535,65535,65535,65535,65535,65535,65535,65535,65535,1052,1046,1039,1034,1029,1005,1010,1028,1038,1045,1056,1075,1077,1080,1081,1084,65535,65535,65535,65535,65535,65535,65535,65535,65535,65535,65535,65535,65535,65535,65535,65535,65535,65535,65535,65535,65535,65535,65535,65535,65535,65535,65535,65535,65535,65535,65535,65535,65535,65535,65535,65535,65535,65535,65535,65535,65535,65535,65535,65535,65535,65535,65535,65535,65535,65535,65535,65535,65535,65535,65535
65535,65535,65535,65535,65535,65535,65535,65535,65535,65535,65535,65535,65535,65535,65535,65535,65535,65535,65535,65535,1047,1040,1035,1027,1023,1017,1000,1012,1025,1037,1054,1067,1075,1077,1082,1083,65535,65535,65535,65535,65535,65535,65535,65535,65535,65535,65535,65535,65535,65535,65535,65535,65535,65535,65535,65535,65535,65535,65535,65535,65535,65535,65535,65535,65535,65535,65535,65535,65535,65535,65535,65535,65535,65535,65535,65535,65535,65535,65535,65535,65535,65535,65535,65535,65535,65535,65535,65535,65535,65535,65535,65535
65535,65535,65535,65535,65535,65535,65535,65535,65535,65535,65535,65535,65535,65535,65535,65535,65535,65535,65535,65535,1041,1032,1028,1021,1013,1005,997,1011,1026,1042,1056,1068,1074,1080,1082,1083,65535,65535,65535,65535,65535,65535,65535,65535,65535,65535,65535,65535,65535,65535,65535,65535,65535,65535,65535,65535,65535,65535,65535,65535,65535,65535,65535,65535,65535,65535,65535,65535,65535,65535,65535,65535,65535,65535,65535,65535,65535,65535,65535,65535,65535,65535,65535,65535,65535,65535,65535,65535,65535,65535,65535,65535
65535,65535,65535,65535,65535,65535,65535,65535,65535,65535,65535,65535,65535,65535,65535,65535,65535,65535,65535,1055,1036,1028,1021,1012,1005,997,994,1009,1025,1043,1059,1065,1069,1076,1081,1082,65535,65535,65535,65535,65535,65535,65535,65535,65535,65535,65535,65535,65535,65535,65535,65535,65535,65535,65535,65535,65535,65535,65535,65535,65535,65535,65535,65535,65535,65535,65535,65535,65535,65535,65535,65535,65535,65535,65535,65535,65535,65535,65535,65535,65535,65535,65535,65535,65535,65535,65535,65535,65535,65535,65535,65535
65535,65535,65535,65535,65535,65535,65535,65535,65535,65535,65535,65535,65535,65535,65535,65535,65535,65535,65535,1046,1038,1024,1016,1006,997,990,995,1016,1027,1045,1056,1061,1064,1069,1075,1080,65535,65535,65535,65535,65535,65535,65535,65535,65535,65535,65535,65535,65535,65535,65535,65535,65535,65535,65535,65535,65535,65535,65535,65535,65535,65535,65535,65535,65535,65535,65535,65535,65535,65535,65535,65535,65535,65535,65535,65535,65535,65535,65535,65535,65535,65535,65535,65535,65535,65535,65535,65535,65535,65535,65535,65535
65535,65535,65535,65535,65535,65535,65535,65535,65535,65535,65535,65535,65535,65535,65535,65535,65535,65535,65535,1038,1033,1018,1008,997,989,988,996,1010,1028,1032,1035,1037,1041,1050,1064,1072,65535,65535,65535,65535,65535,65535,65535,65535,65535,65535,65535,65535,65535,65535,65535,65535,65535,65535,65535,65535,65535,65535,65535,65535,65535,65535,65535,65535,65535,65535,65535,65535,65535,65535,65535,65535,65535,65535,65535,65535,65535,65535,65535,65535,65535,65535,65535,65535,65535,65535,65535,65535,65535,65535,65535,65535
65535,65535,65535,65535,65535,65535,65535,65535,65535,65535,65535,65535,65535,65535,65535,65535,65535,65535,65535,1037,1032,1023,1002,990,987,989,1000,1007,1023,1025,1027,1029,1036,1046,1058,1068,1066,1058,1054,65535,65535,65535,65535,65535,65535,65535,65535,65535,65535,65535,65535,65535,65535,65535,65535,65535,65535,65535,65535,65535,65535,65535,65535,65535,65535,65535,65535,65535,65535,65535,65535,65535,65535,65535,65535,65535,65535,65535,65535,65535,65535,65535,65535,65535,65535,65535,65535,65535,65535,65535,65535,65535
65535,65535,65535,65535,65535,65535,65535,65535,65535,65535,65535,65535,65535,65535,65535,65535,65535,65535,65535,1033,1031,1023,996,984,978,988,999,1005,1011,1018,1023,1029,1037,1046,1057,1062,1058,1051,1049,1046,1041,65535,65535,65535,65535,65535,65535,65535,65535,65535,65535,65535,65535,65535,65535,65535,65535,65535,65535,65535,65535,65535,65535,65535,65535,65535,65535,65535,65535,65535,65535,65535,65535,65535,65535,65535,65535,65535,65535,65535,65535,65535,65535,65535,65535,65535,65535,65535,65535,65535,65535,65535
65535,65535,65535,65535,65535,65535,65535,65535,65535,65535,65535,65535,65535,65535,65535,65535,65535,65535,65535,1034,1032,1026,997,984,982,987,996,1001,1006,1016,1021,1028,1036,1043,1054,1061,1060,1044,1039,1038,1033,1023,65535,65535,65535,65535,65535,65535,65535,65535,65535,65535,65535,65535,65535,65535,65535,65535,65535,65535,65535,65535,65535,65535,65535,65535,65535,65535,65535,65535,65535,65535,65535,65535,65535,65535,65535,65535,65535,65535,65535,65535,65535,65535,65535,65535,65535,65535,65535,65535,65535,65535
65535,65535,65535,65535,65535,65535,65535,65535,65535,65535,65535,65535,65535,65535,65535,65535,65535,65535,65535,1034,1025,1019,999,991,987,984,1001,1010,1015,1020,1022,1028,1034,1044,1052,1059,1060,1034,1031,1028,1023,1012,1014,1020,65535,65535,65535,65535,65535,65535,65535,65535,65535,65535,65535,65535,65535,65535,65535,65535,65535,65535,65535,65535,65535,65535,65535,65535,65535,65535,65535,65535,65535,65535,65535,65535,65535,65535,65535,65535,65535,65535,65535,65535,65535,65535,65535,65535,65535,65535,65535,65535
65535,65535,65535,65535,65535,65535,65535,65535,65535,65535,65535,65535,65535,65535,65535,65535,65535,65535,65535,1028,1025,1019,1005,994,988,987,999,1019,1029,1031,1033,1036,1038,1040,1049,1056,1057,1033,1027,1021,1011,1006,1007,1013,65535,65535,65535,65535,65535,65535,65535,65535,65535,65535,65535,65535,65535,65535,65535,65535,65535,65535,65535,65535,65535,65535,65535,65535,65535,65535,65535,65535,65535,65535,65535,65535,65535,65535,65535,65535,65535,65535,65535,65535,65535,65535,65535,65535,65535,65535,65535,65535
65535,65535,65535,65535,65535,65535,65535,65535,65535,65535,65535,65535,65535,65535,65535,65535,65535,65535,65535,1028,1020,1014,1005,994,998,1003,1013,1027,1036,1041,1034,1027,1029,1036,1042,1049,1045,1036,1022,1013,1002,997,996,999,65535,65535,65535,65535,65535,65535,65535,65535,65535,65535,65535,65535,65535,65535,65535,65535,65535,65535,65535,65535,65535,65535,65535,65535,65535,65535,65535,65535,65535,65535,65535,65535,65535,65535,65535,65535,65535,65535,65535,65535,65535,65535,65535,65535,65535,65535,65535,65535
65535,65535,65535,65535,65535,65535,65535,65535,65535,65535,65535,65535,65535,65535,65535,65535,65535,65535,65535,1030,1021,1005,991,995,998,1004,1020,1028,1029,1034,1026,1021,1022,1027,1035,1038,1036,1026,1014,1006,996,989,988,992,65535,65535,65535,65535,65535,65535,65535,65535,65535,65535,65535,65535,65535,65535,65535,65535,65535,65535,65535,65535,65535,65535,65535,65535,65535,65535,65535,65535,65535,65535,65535,65535,65535,65535,65535,65535,65535,65535,65535,65535,65535,65535,65535,65535,65535,65535,65535,65535
65535,65535,65535,65535,65535,65535,65535,65535,65535,65535,65535,65535,65535,65535,65535,65535,65535,65535,65535,1028,1016,1003,989,984,989,1004,1018,1020,1020,1022,1022,1018,1016,1015,1015,1020,1019,1014,1005,1000,989,986,985,996,65535,65535,65535,65535,65535,65535,65535,65535,65535,65535,65535,65535,65535,65535,65535,65535,65535,65535,65535,65535,65535,65535,65535,65535,65535,65535,65535,65535,65535,65535,65535,65535,65535,65535,65535,65535,65535,65535,65535,65535,65535,65535,65535,65535,65535,65535,65535,65535
65535,65535,65535,65535,65535,65535,65535,65535,65535,65535,65535,65535,65535,65535,65535,65535,65535,65535,65535,1030,1020,1007,988,965,950,969,1018,1020,1011,1009,1010,1007,999,996,1000,998,998,1001,998,993,988,985,992,1006,65535,65535,65535,65535,65535,65535,65535,65535,65535,65535,65535,65535,65535,65535,65535,65535,65535,65535,65535,65535,65535,65535,65535,65535,65535,65535,65535,65535,65535,65535,65535,65535,65535,65535,65535,65535,65535,65535,65535,65535,65535,65535,65535,65535,65535,65535,65535,65535
65535,65535,65535,65535,65535,65535,65535,65535,65535,65535,65535,65535,65535,65535,65535,65535,65535,65535,65535,1038,1021,1005,984,953,937,972,1010,1015,1011,1009,989,981,975,977,981,981,984,987,985,985,986,989,1003,1014,65535,65535,65535,65535,65535,65535,65535,65535,65535,65535,65535,65535,65535,65535,65535,65535,65535,65535,65535,65535,65535,65535,65535,65535,65535,65535,65535,65535,65535,65535,65535,65535,65535,65535,65535,65535,65535,65535,65535,65535,65535,65535,65535,65535,65535,65535,65535,65535
65535,65535,65535,65535,65535,65535,65535,65535,65535,65535,65535,65535,65535,65535,65535,65535,65535,65535,65535,1046,1031,1013,990,963,944,967,998,1000,999,996,989,981,964,961,964,969,974,977,972,979,988,999,1010,1017,1024,65535,65535,65535,65535,65535,65535,65535,65535,65535,65535,65535,65535,65535,65535,65535,65535,65535,65535,65535,65535,65535,65535,65535,65535,65535,65535,65535,65535,65535,65535,65535,65535,65535,65535,65535,65535,65535,65535,65535,65535,65535,65535,65535,65535,65535,65535,65535
65535,65535,65535,65535,65535,65535,65535,65535,65535,65535,65535,65535,65535,65535,65535,65535,65535,65535,65535,1047,1037,1011,992,965,954,956,975,980,985,980,974,968,964,962,963,966,974,981,979,985,995,1006,1012,1016,1025,65535,65535,65535,65535,65535,65535,65535,65535,65535,65535,65535,65535,65535,65535,65535,65535,65535,65535,65535,65535,65535,65535,65535,65535,65535,65535,65535,65535,65535,65535,65535,65535,65535,65535,65535,65535,65535,65535,65535,65535,65535,65535,65535,65535,65535,65535,65535
65535,65535,65535,65535,65535,65535,65535,65535,65535,65535,65535,65535,65535,65535,65535,65535,65535,65535,65535,1036,1031,1008,990,961,943,940,961,965,966,961,954,956,960,962,963,976,991,998,1003,1001,1009,1008,1014,1019,1027,65535,65535,65535,65535,65535,65535,65535,65535,65535,65535,65535,65535,65535,65535,65535,65535,65535,65535,65535,65535,65535,65535,65535,65535,65535,65535,65535,65535,65535,65535,65535,65535,65535,65535,65535,65535,65535,65535,65535,65535,65535,65535,65535,65535,65535,65535,65535
65535,65535,65535,65535,65535,65535,65535,65535,65535,65535,65535,65535,65535,65535,65535,65535,65535,65535,65535,65535,1016,1002,992,966,942,934,948,949,947,945,947,949,965,970,971,976,991,1015,1016,1020,1016,1015,1021,1024,1027,65535,65535,65535,65535,65535,65535,65535,65535,65535,65535,65535,65535,65535,65535,65535,65535,65535,65535,65535,65535,65535,65535,65535,65535,65535,65535,65535,65535,65535,65535,65535,65535,65535,65535,65535,65535,65535,65535,65535,65535,65535,65535,65535,65535,65535,65535,65535
65535,65535,65535,65535,65535,65535,65535,65535,65535,65535,65535,65535,65535,65535,65535,65535,65535,65535,65535,65535,1017,1008,1002,975,945,937,933,935,936,940,945,943,969,996,993,995,1003,1015,1016,1033,1022,1022,1027,1029,1031,65535,65535,65535,65535,65535,65535,65535,65535,65535,65535,65535,65535,65535,65535,65535,65535,65535,65535,65535,65535,65535,65535,65535,65535,65535,65535,65535,65535,65535,65535,65535,65535,65535,65535,65535,65535,65535,65535,65535,65535,65535,65535,65535,65535,65535,65535,65535
65535,65535,65535,65535,65535,65535,65535,65535,65535,65535,65535,65535,65535,65535,65535,65535,65535,65535,65535,65535,1026,1023,1012,977,955,941,925,930,933,937,941,974,1003,1023,1020,1011,1014,1024,1030,1033,1030,1030,1036,1037,1042,65535,65535,65535,65535,65535,65535,65535,65535,65535,65535,65535,65535,65535,65535,65535,65535,65535,65535,65535,65535,65535,65535,65535,65535,65535,65535,65535,65535,65535,65535,65535,65535,65535,65535,65535,65535,65535,65535,65535,65535,65535,65535,65535,65535,65535,65535,65535
65535,65535,65535,65535,65535,65535,65535,65535,65535,65535,65535,65535,65535,65535,65535,65535,65535,65535,65535,65535,1035,1031,1020,975,960,952,921,927,936,946,970,1006,1014,1037,1031,1033,1042,1050,1047,1046,1041,1030,1036,1053,65535,65535,65535,65535,65535,65535,65535,65535,65535,65535,65535,65535,65535,65535,65535,65535,65535,65535,65535,65535,65535,65535,65535,65535,65535,65535,65535,65535,65535,65535,65535,65535,65535,65535,65535,65535,65535,65535,65535,65535,65535,65535,65535,65535,65535,65535,65535,65535
65535,65535,65535,65535,65535,65535,65535,65535,65535,65535,65535,65535,65535,65535,65535,65535,65535,65535,65535,65535,1039,1033,1021,993,963,958,918,928,941,951,957,1002,1025,1040,1042,1045,1050,1054,1056,1060,1058,1042,1048,1053,65535,65535,65535,65535,65535,65535,65535,65535,65535,65535,65535,65535,65535,65535,65535,65535,65535,65535,65535,65535,65535,65535,65535,65535,65535,65535,65535,65535,65535,65535,65535,65535,65535,65535,65535,65535,65535,65535,65535,65535,65535,65535,65535,65535,65535,65535,65535,65535
65535,65535,65535,65535,65535,65535,65535,65535,65535,65535,65535,65535,65535,65535,65535,65535,65535,65535,65535,65535,65535,1032,1014,1001,979,948,918,920,927,942,957,990,1022,1027,1039,1041,1044,1048,1054,1067,1066,1061,1060,65535,65535,65535,65535,65535,65535,65535,65535,65535,65535,65535,65535,65535,65535,65535,65535,65535,65535,65535,65535,65535,65535,65535,65535,65535,65535,65535,65535,65535,65535,65535,65535,65535,65535,65535,65535,65535,65535,65535,65535,65535,65535,65535,65535,65535,65535,65535,65535,65535
65535,65535,65535,65535,65535,65535,65535,65535,65535,65535,65535,65535,65535,65535,65535,65535,65535,65535,65535,65535,65535,1029,1015,1002,992,935,910,904,913,927,947,985,1003,1015,1023,1033,1038,1041,1056,1062,1069,1072,1070,65535,65535,65535,65535,65535,65535,65535,65535,65535,65535,65535,65535,65535,65535,65535,65535,65535,65535,65535,65535,65535,65535,65535,65535,65535,65535,65535,65535,65535,65535,65535,65535,65535,65535,65535,65535,65535,65535,65535,65535,65535,65535,65535,65535,65535,65535,65535,65535,65535
65535,65535,65535,65535,65535,65535,65535,65535,65535,65535,65535,65535,65535,65535,65535,65535,65535,65535,65535,65535,65535,1029,1015,1000,957,920,907,902,911,932,948,971,989,1002,1017,1030,1030,1047,1054,1052,1057,1064,1070,65535,65535,65535,65535,65535,65535,65535,65535,65535,65535,65535,65535,65535,65535,65535,65535,65535,65535,65535,65535,65535,65535,65535,65535,65535,65535,65535,65535,65535,65535,65535,65535,65535,65535,65535,65535,65535,65535,65535,65535,65535,65535,65535,65535,65535,65535,65535,65535,65535
65535,65535,65535,65535,65535,65535,65535,65535,65535,65535,65535,65535,65535,65535,65535,65535,65535,65535,65535,65535,65535,1028,1017,996,954,930,900,899,914,924,933,940,963,982,993,1030,1047,1058,1060,1052,1048,1056,1063,65535,65535,65535,65535,65535,65535,65535,65535,65535,65535,65535,65535,65535,65535,65535,65535,65535,65535,65535,65535,65535,65535,65535,65535,65535,65535,65535,65535,65535,65535,65535,65535,65535,65535,65535,65535,65535,65535,65535,65535,65535,65535,65535,65535,65535,65535,65535,65535,65535
65535,65535,65535,65535,65535,65535,65535,65535,65535,65535,65535,65535,65535,65535,65535,65535,65535,65535,65535,65535,65535,1028,1017,993,946,920,890,894,908,920,923,931,947,970,1000,1021,1031,1039,1045,1045,1040,1044,1047,1055,65535,65535,65535,65535,65535,65535,65535,65535,65535,65535,65535,65535,65535,65535,65535,65535,65535,65535,65535,65535,65535,65535,65535,65535,65535,65535,65535,65535,65535,65535,65535,65535,65535,65535,65535,65535,65535,65535,65535,65535,65535,65535,65535,65535,65535,65535,65535,65535
65535,65535,65535,65535,65535,65535,65535,65535,65535,65535,65535,65535,65535,65535,65535,65535,65535,65535,65535,65535,65535,1024,1015,993,946,912,889,889,900,916,923,933,946,969,985,1011,1020,1023,1027,1033,1033,1030,1031,1044,1053,65535,65535,65535,65535,65535,65535,65535,65535,65535,65535,65535,65535,65535,65535,65535,65535,65535,65535,65535,65535,65535,65535,65535,65535,65535,65535,65535,65535,65535,65535,65535,65535,65535,65535,65535,65535,65535,65535,65535,65535,65535,65535,65535,65535,65535,65535,65535
65535,65535,65535,65535,65535,65535,65535,65535,65535,65535,65535,65535,65535,65535,65535,65535,65535,65535,65535,65535,1031,1025,1010,997,943,912,886,886,901,914,922,929,937,950,963,999,1006,1007,1009,1020,1027,1022,1026,1047,1059,65535,65535,65535,65535,65535,65535,65535,65535,65535,65535,65535,65535,65535,65535,65535,65535,65535,65535,65535,65535,65535,65535,65535,65535,65535,65535,65535,65535,65535,65535,65535,65535,65535,65535,65535,65535,65535,65535,65535,65535,65535,65535,65535,65535,65535,65535,65535
65535,65535,65535,65535,65535,65535,65535,65535,65535,65535,65535,65535,65535,65535,65535,65535,65535,65535,65535,65535,1031,1025,1005,954,922,907,886,886,904,916,921,923,926,940,959,972,980,985,991,1005,1012,1015,1016,1027,1057,65535,65535,65535,65535,65535,65535,65535,65535,65535,65535,65535,65535,65535,65535,65535,65535,65535,65535,65535,65535,65535,65535,65535,65535,65535,65535,65535,65535,65535,65535,65535,65535,65535,65535,65535,65535,65535,65535,65535,65535,65535,65535,65535,65535,65535,65535,65535
65535,65535,65535,65535,65535,65535,65535,65535,65535,65535,65535,65535,65535,65535,65535,65535,65535,65535,65535,65535,1030,1025,986,936,916,900,878,884,904,914,918,919,921,931,946,956,957,967,987,996,999,999,1009,1022,1046,65535,65535,65535,65535,65535,65535,65535,65535,65535,65535,65535,65535,65535,65535,65535,65535,65535,65535,65535,65535,65535,65535,65535,65535,65535,65535,65535,65535,65535,65535,65535,65535,65535,65535,65535,65535,65535,65535,65535,65535,65535,65535,65535,65535,65535,65535,65535
65535,65535,65535,65535,65535,65535,65535,65535,65535,65535,65535,65535,65535,65535,65535,65535,65535,65535,65535,65535,1027,1025,965,936,910,894,870,876,890,914,918,913,917,925,929,933,943,957,971,982,987,993,1008,1021,1031,1041,65535,65535,65535,65535,65535,65535,65535,65535,65535,65535,65535,65535,65535,65535,65535,65535,65535,65535,65535,65535,65535,65535,65535,65535,65535,65535,65535,65535,65535,65535,65535,65535,65535,65535,65535,65535,65535,65535,65535,65535,65535,65535,65535,65535,65535,65535
65535,65535,65535,65535,65535,65535,65535,65535,65535,65535,65535,65535,65535,65535,65535,65535,65535,65535,65535,65535,1018,1013,955,921,908,889,870,872,883,908,913,913,917,914,918,923,931,946,956,962,969,978,1002,1011,1019,1030,1046,65535,65535,65535,65535,65535,65535,65535,65535,65535,65535,65535,65535,65535,65535,65535,65535,65535,65535,65535,65535,65535,65535,65535,65535,65535,65535,65535,65535,65535,65535,65535,65535,65535,65535,65535,65535,65535,65535,65535,65535,65535,65535,65535,65535,65535
65535,65535,65535,65535,65535,65535,65535,65535,65535,65535,65535,65535,65535,65535,65535,65535,65535,65535,65535,1013,1006,1002,947,920,908,891,872,874,879,896,902,906,910,914,918,918,925,939,950,961,970,983,995,1014,1022,1028,1037,65535,65535,65535,65535,65535,65535,65535,65535,65535,65535,65535,65535,65535,65535,65535,65535,65535,65535,65535,65535,65535,65535,65535,65535,65535,65535,65535,65535,65535,65535,65535,65535,65535,65535,65535,65535,65535,65535,65535,65535,65535,65535,65535,65535,65535
65535,65535,65535,65535,65535,65535,65535,65535,65535,65535,65535,65535,65535,65535,65535,65535,65535,65535,65535,1007,1001,991,971,919,905,885,874,871,875,884,890,896,897,901,909,918,925,929,940,953,964,969,973,1006,1019,1027,1031,1043,65535,65535,65535,65535,65535,65535,65535,65535,65535,65535,65535,65535,65535,65535,65535,65535,65535,65535,65535,65535,65535,65535,65535,65535,65535,65535,65535,65535,65535,65535,65535,65535,65535,65535,65535,65535,65535,65535,65535,65535,65535,65535,65535,65535
65535,65535,65535,65535,65535,65535,65535,65535,65535,65535,65535,65535,65535,65535,65535,65535,65535,65535,1011,1008,998,983,970,920,899,890,872,867,866,870,883,887,890,894,902,909,916,922,938,946,963,995,1016,1014,1016,1026,1030,1036,1047,65535,65535,65535,65535,65535,65535,65535,65535,65535,65535,65535,65535,65535,65535,65535,65535,65535,65535,65535,65535,65535,65535,65535,65535,65535,65535,65535,65535,65535,65535,65535,65535,65535,65535,65535,65535,65535,65535,65535,65535,65535,65535,65535
65535,65535,65535,65535,65535,65535,65535,65535,65535,65535,65535,65535,65535,65535,65535,65535,65535,65535,1018,1011,1004,994,975,918,901,895,874,865,860,862,876,881,886,890,897,907,915,921,938,946,946,969,1012,1025,1028,1033,1036,1037,1040,65535,65535,65535,65535,65535,65535,65535,65535,65535,65535,65535,65535,65535,65535,65535,65535,65535,65535,65535,65535,65535,65535,65535,65535,65535,65535,65535,65535,65535,65535,65535,65535,65535,65535,65535,65535,65535,65535,65535,65535,65535,65535,65535
65535,65535,65535,65535,65535,65535,65535,65535,65535,65535,65535,65535,65535,65535,65535,65535,65535,65535,1033,1024,1014,991,970,933,906,898,876,861,855,856,870,880,887,891,900,910,919,928,940,944,946,969,1025,1040,1045,1054,1051,1044,1046,1050,65535,65535,65535,65535,65535,65535,65535,65535,65535,65535,65535,65535,65535,65535,65535,65535,65535,65535,65535,65535,65535,65535,65535,65535,65535,65535,65535,65535,65535,65535,65535,65535,65535,65535,65535,65535,65535,65535,65535,65535,65535,65535
65535,65535,65535,65535,65535,65535,65535,65535,65535,65535,65535,65535,65535,65535,65535,65535,65535,65535,1036,1026,1010,978,946,930,910,896,870,856,850,852,858,879,888,895,903,911,917,925,942,946,953,965,1025,1040,1048,1054,1055,1055,1054,1057,65535,65535,65535,65535,65535,65535,65535,65535,65535,65535,65535,65535,65535,65535,65535,65535,65535,65535,65535,65535,65535,65535,65535,65535,65535,65535,65535,65535,65535,65535,65535,65535,65535,65535,65535,65535,65535,65535,65535,65535,65535,65535
65535,65535,65535,65535,65535,65535,65535,65535,65535,65535,65535,65535,65535,65535,65535,65535,65535,65535,1027,1018,1001,962,936,928,906,890,862,850,846,848,852,878,888,900,907,913,918,925,935,951,957,1000,1026,1037,1048,1054,1048,1054,1056,1061,65535,65535,65535,65535,65535,65535,65535,65535,65535,65535,65535,65535,65535,65535,65535,65535,65535,65535,65535,65535,65535,65535,65535,65535,65535,65535,65535,65535,65535,65535,65535,65535,65535,65535,65535,65535,65535,65535,65535,65535,65535,65535
65535,65535,65535,65535,65535,65535,65535,65535,65535,65535,65535,65535,65535,65535,65535,65535,1026,1018,1017,1001,966,941,934,925,895,882,856,843,842,847,855,876,889,898,909,917,922,925,932,957,971,987,1011,1025,1037,1045,1048,1054,1048,1052,65535,65535,65535,65535,65535,65535,65535,65535,65535,65535,65535,65535,65535,65535,65535,65535,65535,65535,65535,65535,65535,65535,65535,65535,65535,65535,65535,65535,65535,65535,65535,65535,65535,65535,65535,65535,65535,65535,65535,65535,65535,65535
65535,65535,65535,65535,65535,65535,65535,65535,65535,65535,65535,65535,65535,65535,65535,1027,1020,1018,1017,967,945,935,926,917,903,878,849,836,835,844,854,866,887,898,907,917,922,926,930,1001,1003,1007,1013,1020,1031,1038,1041,1045,1048,1041,65535,65535,65535,65535,65535,65535,65535,65535,65535,65535,65535,65535,65535,65535,65535,65535,65535,65535,65535,65535,65535,65535,65535,65535,65535,65535,65535,65535,65535,65535,65535,65535,65535,65535,65535,65535,65535,65535,65535,65535,65535,65535
65535,65535,65535,65535,65535,65535,65535,65535,65535,65535,65535,65535,65535,65535,65535,1019,1010,1008,995,967,945,929,911,895,889,873,847,832,831,838,852,868,887,897,904,913,923,929,935,970,1026,1026,1027,1030,1042,1049,1046,1039,1039,1041,1050,65535,65535,65535,65535,65535,65535,65535,65535,65535,65535,65535,65535,65535,65535,65535,65535,65535,65535,65535,65535,65535,65535,65535,65535,65535,65535,65535,65535,65535,65535,65535,65535,65535,65535,65535,65535,65535,65535,65535,65535,65535
65535,65535,65535,65535,65535,65535,65535,65535,65535,65535,65535,65535,65535,65535,1016,1007,1004,1004,974,952,939,929,911,889,882,870,843,828,830,839,856,875,889,899,909,922,927,931,951,1007,1039,1042,1040,1046,1056,1061,1062,1061,1050,1045,1048,65535,65535,65535,65535,65535,65535,65535,65535,65535,65535,65535,65535,65535,65535,65535,65535,65535,65535,65535,65535,65535,65535,65535,65535,65535,65535,65535,65535,65535,65535,65535,65535,65535,65535,65535,65535,65535,65535,65535,65535,65535
65535,65535,65535,65535,65535,65535,65535,65535,65535,65535,65535,65535,65535,1020,1015,1005,1001,997,959,946,935,920,902,889,875,868,836,829,834,843,858,876,895,904,918,926,931,936,947,957,1033,1041,1045,1050,1054,1062,1069,1071,1064,1059,1066,1067,65535,65535,65535,65535,65535,65535,65535,65535,65535,65535,65535,65535,65535,65535,65535,65535,65535,65535,65535,65535,65535,65535,65535,65535,65535,65535,65535,65535,65535,65535,65535,65535,65535,65535,65535,65535,65535,65535,65535,65535
65535,65535,65535,65535,65535,65535,65535,65535,65535,65535,65535,65535,65535,1018,1012,998,988,975,937,926,915,912,899,886,875,868,824,830,838,848,865,876,884,909,919,925,933,944,947,949,982,1035,1043,1048,1049,1050,1055,1060,1063,1070,1075,1077,65535,65535,65535,65535,65535,65535,65535,65535,65535,65535,65535,65535,65535,65535,65535,65535,65535,65535,65535,65535,65535,65535,65535,65535,65535,65535,65535,65535,65535,65535,65535,65535,65535,65535,65535,65535,65535,65535,65535,65535
65535,65535,65535,65535,65535,65535,65535,65535,65535,65535,65535,65535,1014,1010,998,978,962,936,920,911,906,900,891,882,869,857,824,824,839,854,866,876,883,900,911,920,933,945,947,947,972,1031,1039,1043,1046,1045,1045,1049,1054,1068,1075,1078,65535,65535,65535,65535,65535,65535,65535,65535,65535,65535,65535,65535,65535,65535,65535,65535,65535,65535,65535,65535,65535,65535,65535,65535,65535,65535,65535,65535,65535,65535,65535,65535,65535,65535,65535,65535,65535,65535,65535,65535
65535,65535,65535,65535,65535,65535,65535,65535,65535,65535,65535,1011,1008,998,972,955,936,926,918,907,901,890,884,878,867,852,819,824,839,851,864,876,881,896,905,915,929,941,947,949,957,1026,1036,1042,1046,1043,1039,1042,1051,1068,1071,1075,65535,65535,65535,65535,65535,65535,65535,65535,65535,65535,65535,65535,65535,65535,65535,65535,65535,65535,65535,65535,65535,65535,65535,65535,65535,65535,65535,65535,65535,65535,65535,65535,65535,65535,65535,65535,65535,65535,65535,65535
65535,65535,65535,65535,65535,65535,65535,65535,65535,65535,65535,1011,1000,981,961,943,929,919,915,898,891,880,877,872,859,845,812,819,839,851,864,874,880,886,901,908,921,933,943,950,951,1005,1023,1043,1050,1045,1046,1048,1053,1061,1065,1069,65535,65535,65535,65535,65535,65535,65535,65535,65535,65535,65535,65535,65535,65535,65535,65535,65535,65535,65535,65535,65535,65535,65535,65535,65535,65535,65535,65535,65535,65535,65535,65535,65535,65535,65535,65535,65535,65535,65535,65535
65535,65535,65535,65535,65535,65535,65535,65535,65535,65535,65535,1004,983,965,953,933,920,910,902,886,879,872,871,864,848,829,811,828,840,851,862,874,881,886,897,903,911,925,938,948,954,956,994,1016,1037,1048,1050,1050,1048,1048,1055,1062,65535,65535,65535,65535,65535,65535,65535,65535,65535,65535,65535,65535,65535,65535,65535,65535,65535,65535,65535,65535,65535,65535,65535,65535,65535,65535,65535,65535,65535,65535,65535,65535,65535,65535,65535,65535,65535,65535,65535,65535
65535,65535,65535,65535,65535,65535,65535,65535,65535,65535,65535,1006,972,955,940,920,912,903,895,887,871,865,863,847,833,814,813,828,846,855,865,876,881,886,895,896,904,914,924,932,947,954,964,997,1031,1046,1048,1046,1041,1040,1052,1059,65535,65535,65535,65535,65535,65535,65535,65535,65535,65535,65535,65535,65535,65535,65535,65535,65535,65535,65535,65535,65535,65535,65535,65535,65535,65535,65535,65535,65535,65535,65535,65535,65535,65535,65535,65535,65535,65535,65535,65535
65535,65535,65535,65535,65535,65535,65535,65535,65535,65535,1006,993,964,950,929,914,905,897,887,880,868,863,848,833,817,800,800,833,855,866,874,878,882,888,893,896,905,910,921,930,942,953,964,986,1013,1027,1037,1037,1036,1039,1052,1059,65535,65535,65535,65535,65535,65535,65535,65535,65535,65535,65535,65535,65535,65535,65535,65535,65535,65535,65535,65535,65535,65535,65535,65535,65535,65535,65535,65535,65535,65535,65535,65535,65535,65535,65535,65535,65535,65535,65535,65535
65535,65535,65535,65535,65535,65535,65535,65535,65535,65535,998,985,951,940,923,909,897,887,879,872,867,857,840,822,807,794,807,844,860,871,878,881,885,891,895,899,905,910,919,925,937,947,953,971,987,1005,1016,1023,1033,1038,1051,1059,65535,65535,65535,65535,65535,65535,65535,65535,65535,65535,65535,65535,65535,65535,65535,65535,65535,65535,65535,65535,65535,65535,65535,65535,65535,65535,65535,65535,65535,65535,65535,65535,65535,65535,65535,65535,65535,65535,65535,65535
65535,65535,65535,65535,65535,65535,65535,65535,65535,65535,995,980,955,937,926,910,891,882,874,865,858,845,826,811,797,793,805,850,866,880,885,888,890,892,897,911,914,915,919,925,928,938,950,969,984,1002,1009,1016,1026,1035,1045,1059,65535,65535,65535,65535,65535,65535,65535,65535,65535,65535,65535,65535,65535,65535,65535,65535,65535,65535,65535,65535,65535,65535,65535,65535,65535,65535,65535,65535,65535,65535,65535,65535,65535,65535,65535,65535,65535,65535,65535,65535
65535,65535,65535,65535,65535,65535,65535,65535,65535,65535,995,970,947,933,928,913,896,880,871,862,857,832,813,799,784,783,794,812,873,886,887,888,889,892,897,912,912,913,918,924,928,938,939,962,987,1008,1011,1018,1025,1034,1041,65535,65535,65535,65535,65535,65535,65535,65535,65535,65535,65535,65535,65535,65535,65535,65535,65535,65535,65535,65535,65535,65535,65535,65535,65535,65535,65535,65535,65535,65535,65535,65535,65535,65535,65535,65535,65535,65535,65535,65535,65535
65535,65535,65535,65535,65535,65535,65535,65535,65535,999,990,970,947,932,926,916,897,883,874,864,857,835,802,789,778,778,785,820,881,883,881,880,882,888,895,901,907,908,917,924,929,931,939,943,968,985,1014,1024,1024,1033,1048,65535,65535,65535,65535,65535,65535,65535,65535,65535,65535,65535,65535,65535,65535,65535,65535,65535,65535,65535,65535,65535,65535,65535,65535,65535,65535,65535,65535,65535,65535,65535,65535,65535,65535,65535,65535,65535,65535,65535,65535,65535
65535,65535,65535,65535,65535,65535,65535,65535,1002,1004,999,997,978,940,926,915,896,888,882,873,865,851,796,788,777,781,814,820,878,881,875,873,871,874,879,885,896,900,905,910,913,920,938,945,978,1001,1013,1014,1020,1028,1040,65535,65535,65535,65535,65535,65535,65535,65535,65535,65535,65535,65535,65535,65535,65535,65535,65535,65535,65535,65535,65535,65535,65535,65535,65535,65535,65535,65535,65535,65535,65535,65535,65535,65535,65535,65535,65535,65535,65535,65535,65535
65535,65535,65535,65535,65535,65535,65535,65535,1014,1017,1020,1014,1004,942,927,916,898,888,885,880,873,858,803,793,783,768,812,814,833,870,870,866,865,867,871,883,894,901,905,912,918,932,945,956,982,998,1010,1014,1020,1027,1037,65535,65535,65535,65535,65535,65535,65535,65535,65535,65535,65535,65535,65535,65535,65535,65535,65535,65535,65535,65535,65535,65535,65535,65535,65535,65535,65535,65535,65535,65535,65535,65535,65535,65535,65535,65535,65535,65535,65535,65535,65535
65535,65535,65535,65535,65535,65535,65535,65535,65535,1027,1032,1019,987,949,927,919,904,894,885,880,877,866,808,790,774,758,800,808,820,858,862,859,857,862,869,884,901,901,901,908,915,932,947,960,976,1002,1009,1015,1019,1027,1037,65535,65535,65535,65535,65535,65535,65535,65535,65535,65535,65535,65535,65535,65535,65535,65535,65535,65535,65535,65535,65535,65535,65535,65535,65535,65535,65535,65535,65535,65535,65535,65535,65535,65535,65535,65535,65535,65535,65535,65535,65535
65535,65535,65535,65535,65535,65535,65535,65535,65535,65535,1034,1016,991,963,936,921,911,898,888,881,877,866,826,768,762,754,787,807,813,845,850,850,852,856,864,880,889,893,899,907,918,932,949,965,984,1003,1010,1016,1019,1028,1037,65535,65535,65535,65535,65535,65535,65535,65535,65535,65535,65535,65535,65535,65535,65535,65535,65535,65535,65535,65535,65535,65535,65535,65535,65535,65535,65535,65535,65535,65535,65535,65535,65535,65535,65535,65535,65535,65535,65535,65535,65535
65535,65535,65535,65535,65535,65535,65535,65535,65535,65535,1034,1022,997,964,934,921,911,901,890,879,870,855,826,768,759,753,775,801,815,821,831,839,844,848,858,870,878,885,899,908,918,931,950,968,985,1005,1011,1017,1020,1027,1036,65535,65535,65535,65535,65535,65535,65535,65535,65535,65535,65535,65535,65535,65535,65535,65535,65535,65535,65535,65535,65535,65535,65535,65535,65535,65535,65535,65535,65535,65535,65535,65535,65535,65535,65535,65535,65535,65535,65535,65535,65535
65535,65535,65535,65535,65535,65535,65535,65535,65535,65535,1035,1028,984,940,933,919,913,900,887,875,860,844,806,763,759,753,770,788,800,805,817,825,831,841,852,869,874,877,893,905,919,933,953,972,988,1000,1012,1018,1023,1029,1037,1033,65535,65535,65535,65535,65535,65535,65535,65535,65535,65535,65535,65535,65535,65535,65535,65535,65535,65535,65535,65535,65535,65535,65535,65535,65535,65535,65535,65535,65535,65535,65535,65535,65535,65535,65535,65535,65535,65535,65535,65535
65535,65535,65535,65535,65535,65535,65535,65535,65535,65535,1024,1014,944,935,932,925,905,892,878,867,856,836,802,771,756,747,755,775,782,791,810,817,822,833,858,870,876,878,894,906,914,932,952,972,988,1000,1014,1021,1028,1036,1040,1030,1018,65535,65535,65535,65535,65535,65535,65535,65535,65535,65535,65535,65535,65535,65535,65535,65535,65535,65535,65535,65535,65535,65535,65535,65535,65535,65535,65535,65535,65535,65535,65535,65535,65535,65535,65535,65535,65535,65535,65535
65535,65535,65535,65535,65535,65535,65535,65535,65535,65535,1010,992,947,933,930,917,897,882,873,858,843,819,811,798,748,741,755,775,780,784,789,820,835,852,863,872,882,890,898,908,916,935,957,972,984,993,1015,1023,1035,1044,1044,1022,1010,65535,65535,65535,65535,65535,65535,65535,65535,65535,65535,65535,65535,65535,65535,65535,65535,65535,65535,65535,65535,65535,65535,65535,65535,65535,65535,65535,65535,65535,65535,65535,65535,65535,65535,65535,65535,65535,65535,65535
65535,65535,65535,65535,65535,65535,65535,65535,65535,1019,1002,972,944,931,919,906,894,881,872,859,834,823,816,794,743,737,749,770,780,784,794,820,840,860,869,878,888,897,901,911,932,948,962,972,981,1002,1025,1030,1041,1049,1054,1003,1006,65535,65535,65535,65535,65535,65535,65535,65535,65535,65535,65535,65535,65535,65535,65535,65535,65535,65535,65535,65535,65535,65535,65535,65535,65535,65535,65535,65535,65535,65535,65535,65535,65535,65535,65535,65535,65535,65535,65535
65535,65535,65535,65535,65535,65535,65535,65535,65535,1014,985,957,943,926,910,901,897,880,866,847,827,820,813,788,742,737,744,759,768,781,794,820,845,860,871,882,890,895,900,913,926,940,956,970,975,993,1025,1034,1041,1057,1053,988,991,999,990,65535,65535,65535,65535,65535,65535,65535,65535,65535,65535,65535,65535,65535,65535,65535,65535,65535,65535,65535,65535,65535,65535,65535,65535,65535,65535,65535,65535,65535,65535,65535,65535,65535,65535,65535,65535,65535
65535,65535,65535,65535,65535,65535,65535,65535,1023,994,969,948,941,922,909,906,898,875,851,826,817,813,801,768,752,736,743,755,786,810,806,827,845,860,872,879,889,895,903,919,931,948,965,971,974,997,1021,1032,1027,1026,996,984,975,983,973,983,65535,65535,65535,65535,65535,65535,65535,65535,65535,65535,65535,65535,65535,65535,65535,65535,65535,65535,65535,65535,65535,65535,65535,65535,65535,65535,65535,65535,65535,65535,65535,65535,65535,65535,65535,65535
65535,65535,65535,65535,65535,65535,65535,65535,1017,971,952,943,935,917,907,901,894,863,845,813,811,798,768,749,736,733,746,761,784,803,808,816,843,860,872,879,888,899,904,913,937,956,972,967,973,995,1022,1027,1009,986,986,977,972,965,962,971,65535,65535,65535,65535,65535,65535,65535,65535,65535,65535,65535,65535,65535,65535,65535,65535,65535,65535,65535,65535,65535,65535,65535,65535,65535,65535,65535,65535,65535,65535,65535,65535,65535,65535,65535,65535
65535,65535,65535,65535,65535,65535,65535,65535,1007,981,938,935,923,912,900,892,883,848,828,809,801,782,756,744,732,730,747,755,767,790,810,817,835,842,859,877,888,893,902,913,938,958,965,968,973,985,1008,1006,987,989,982,975,966,957,951,961,969,65535,65535,65535,65535,65535,65535,65535,65535,65535,65535,65535,65535,65535,65535,65535,65535,65535,65535,65535,65535,65535,65535,65535,65535,65535,65535,65535,65535,65535,65535,65535,65535,65535,65535,65535
65535,65535,65535,65535,65535,65535,65535,65535,1007,946,932,929,916,910,896,884,872,862,823,810,795,767,753,743,731,724,747,755,763,773,798,811,827,834,852,875,885,893,902,911,932,953,959,960,969,978,990,1005,987,983,979,973,957,943,942,946,962,969,65535,65535,65535,65535,65535,65535,65535,65535,65535,65535,65535,65535,65535,65535,65535,65535,65535,65535,65535,65535,65535,65535,65535,65535,65535,65535,65535,65535,65535,65535,65535,65535,65535,65535
65535,65535,65535,65535,65535,65535,65535,1006,982,946,932,923,917,911,896,882,870,855,818,798,781,761,747,741,728,722,749,758,765,781,797,807,818,836,856,879,889,892,902,911,932,944,951,953,962,969,975,987,988,981,975,963,944,932,936,936,953,965,970,65535,65535,65535,65535,65535,65535,65535,65535,65535,65535,65535,65535,65535,65535,65535,65535,65535,65535,65535,65535,65535,65535,65535,65535,65535,65535,65535,65535,65535,65535,65535,65535,65535
65535,65535,65535,65535,65535,65535,65535,977,947,935,928,923,913,905,890,878,865,842,800,778,763,751,739,730,721,716,745,760,769,778,790,804,817,832,846,875,896,902,911,918,922,944,951,953,962,965,972,979,983,975,965,952,937,927,927,925,944,955,958,961,65535,65535,65535,65535,65535,65535,65535,65535,65535,65535,65535,65535,65535,65535,65535,65535,65535,65535,65535,65535,65535,65535,65535,65535,65535,65535,65535,65535,65535,65535,65535,65535
65535,65535,65535,65535,65535,65535,65535,960,939,933,928,918,913,905,877,869,848,821,802,767,757,740,728,720,711,713,738,748,762,773,783,794,802,821,831,876,900,911,920,922,926,945,949,953,962,966,968,972,973,965,954,943,931,921,917,916,922,942,947,952,960,65535,65535,65535,65535,65535,65535,65535,65535,65535,65535,65535,65535,65535,65535,65535,65535,65535,65535,65535,65535,65535,65535,65535,65535,65535,65535,65535,65535,65535,65535,65535
65535,65535,65535,65535,65535,65535,65535,946,937,934,928,912,898,885,877,869,830,818,794,760,750,732,717,714,709,714,734,741,752,761,769,772,788,806,840,867,892,908,915,921,929,943,949,953,960,966,968,962,960,956,947,938,927,917,910,909,915,935,939,942,947,65535,65535,65535,65535,65535,65535,65535,65535,65535,65535,65535,65535,65535,65535,65535,65535,65535,65535,65535,65535,65535,65535,65535,65535,65535,65535,65535,65535,65535,65535,65535
65535,65535,65535,65535,65535,65535,954,941,936,932,927,897,885,877,867,850,830,818,787,751,747,728,716,710,710,713,733,740,749,758,767,777,791,815,841,856,886,902,910,917,926,932,949,954,959,961,963,962,951,946,938,929,919,909,903,903,908,924,930,934,939,946,65535,65535,65535,65535,65535,65535,65535,65535,65535,65535,65535,65535,65535,65535,65535,65535,65535,65535,65535,65535,65535,65535,65535,65535,65535,65535,65535,65535,65535,65535
65535,65535,65535,65535,65535,65535,945,937,932,927,920,904,880,873,861,840,820,804,787,751,740,730,714,710,710,714,732,744,749,754,761,783,798,815,844,857,879,896,908,916,920,926,948,951,954,956,956,951,951,950,928,921,910,903,899,899,907,913,922,927,930,933,65535,65535,65535,65535,65535,65535,65535,65535,65535,65535,65535,65535,65535,65535,65535,65535,65535,65535,65535,65535,65535,65535,65535,65535,65535,65535,65535,65535,65535,65535
65535,65535,65535,65535,65535,944,936,933,924,919,912,899,870,863,848,825,804,796,777,753,740,723,712,708,707,711,724,742,747,753,762,781,799,812,832,845,878,888,899,910,917,929,943,947,952,951,947,943,941,940,928,921,903,898,895,898,902,906,916,918,919,921,934,65535,65535,65535,65535,65535,65535,65535,65535,65535,65535,65535,65535,65535,65535,65535,65535,65535,65535,65535,65535,65535,65535,65535,65535,65535,65535,65535,65535,65535
65535,65535,65535,65535,946,935,929,921,914,910,900,890,865,852,834,817,806,793,771,752,732,723,712,708,706,709,724,741,750,758,760,768,812,823,824,871,881,887,897,900,908,926,934,938,942,939,935,931,930,925,920,913,903,898,888,889,895,902,912,911,911,917,928,945,65535,65535,65535,65535,65535,65535,65535,65535,65535,65535,65535,65535,65535,65535,65535,65535,65535,65535,65535,65535,65535,65535,65535,65535,65535,65535,65535,65535
65535,65535,65535,65535,947,929,922,914,908,896,885,885,880,852,844,822,805,792,769,755,729,722,713,708,706,707,724,744,753,757,757,768,801,825,821,882,893,896,897,900,908,915,922,928,926,923,920,918,915,910,910,903,896,892,888,889,888,897,903,906,912,918,924,936,65535,65535,65535,65535,65535,65535,65535,65535,65535,65535,65535,65535,65535,65535,65535,65535,65535,65535,65535,65535,65535,65535,65535,65535,65535,65535,65535,65535
65535,65535,65535,945,936,925,919,912,904,890,876,879,876,860,836,809,800,785,768,754,739,721,712,707,705,707,726,746,753,756,758,776,804,810,819,858,880,891,892,896,902,907,911,908,905,899,900,896,894,895,890,887,882,876,875,879,888,883,891,903,911,918,924,931,65535,65535,65535,65535,65535,65535,65535,65535,65535,65535,65535,65535,65535,65535,65535,65535,65535,65535,65535,65535,65535,65535,65535,65535,65535,65535,65535,65535
65535,65535,65535,937,932,921,914,910,900,886,872,872,870,847,817,801,794,774,761,748,743,719,709,703,702,707,726,737,751,755,759,768,783,796,808,825,859,881,882,884,890,894,894,887,884,879,872,873,874,872,867,861,858,855,858,867,877,883,891,901,907,912,918,925,931,936,937,65535,65535,65535,65535,65535,65535,65535,65535,65535,65535,65535,65535,65535,65535,65535,65535,65535,65535,65535,65535,65535,65535,65535,65535,65535
65535,65535,934,929,927,920,905,905,897,882,874,871,869,837,804,796,788,763,748,739,749,715,701,699,700,705,722,732,751,755,754,759,771,791,811,821,846,858,865,868,867,870,876,874,866,863,860,856,855,852,852,847,839,838,840,851,861,871,882,901,907,912,915,916,922,928,930,65535,65535,65535,65535,65535,65535,65535,65535,65535,65535,65535,65535,65535,65535,65535,65535,65535,65535,65535,65535,65535,65535,65535,65535,65535
65535,65535,929,925,919,909,897,898,891,878,873,873,864,851,793,792,783,756,737,733,736,727,697,696,697,701,718,726,746,752,754,755,769,782,796,813,832,843,851,856,857,856,857,853,849,847,843,838,837,835,832,826,821,821,827,840,848,854,864,881,907,912,915,912,916,922,929,65535,65535,65535,65535,65535,65535,65535,65535,65535,65535,65535,65535,65535,65535,65535,65535,65535,65535,65535,65535,65535,65535,65535,65535,65535
65535,65535,929,926,917,904,893,886,876,871,868,864,851,832,791,785,772,746,735,725,722,710,694,694,696,700,721,729,735,745,750,755,769,765,774,792,810,827,837,842,845,842,835,829,829,829,826,821,821,820,814,810,806,814,829,837,840,844,850,865,900,910,912,912,916,926,937,944,959,65535,65535,65535,65535,65535,65535,65535,65535,65535,65535,65535,65535,65535,65535,65535,65535,65535,65535,65535,65535,65535,65535,65535
65535,930,928,926,917,899,893,877,867,865,859,840,825,812,786,774,751,738,728,718,709,698,688,690,694,700,720,729,732,749,753,755,760,765,774,779,792,815,824,826,828,828,820,817,815,813,809,805,804,801,797,794,793,801,822,833,841,846,850,853,892,906,909,912,916,926,937,947,956,65535,65535,65535,65535,65535,65535,65535,65535,65535,65535,65535,65535,65535,65535,65535,65535,65535,65535,65535,65535,65535,65535,65535
65535,929,928,927,916,899,892,875,873,862,849,822,807,796,787,755,735,727,723,713,704,693,685,689,694,698,716,727,735,748,751,751,751,756,767,779,792,808,813,816,816,805,800,799,799,796,792,789,788,784,780,779,778,778,802,824,831,840,844,847,853,900,910,915,924,932,940,947,951,65535,65535,65535,65535,65535,65535,65535,65535,65535,65535,65535,65535,65535,65535,65535,65535,65535,65535,65535,65535,65535,65535,65535
65535,928,923,918,912,902,892,875,871,864,835,811,797,784,777,734,727,726,719,713,701,692,687,691,695,699,717,727,732,740,747,746,745,749,759,771,785,808,813,796,798,794,783,781,782,778,775,773,772,770,768,765,761,766,784,808,819,831,840,847,849,893,907,913,917,927,934,940,945,65535,65535,65535,65535,65535,65535,65535,65535,65535,65535,65535,65535,65535,65535,65535,65535,65535,65535,65535,65535,65535,65535,65535
930,925,916,911,911,902,892,877,871,864,822,808,791,777,761,731,727,721,714,706,696,690,687,692,697,702,713,721,728,735,739,737,735,741,750,762,776,782,788,796,798,770,770,770,768,763,763,761,759,755,752,751,749,760,769,784,802,816,832,841,845,888,905,909,918,924,928,933,943,65535,65535,65535,65535,65535,65535,65535,65535,65535,65535,65535,65535,65535,65535,65535,65535,65535,65535,65535,65535,65535,65535,65535
924,922,913,906,906,896,887,880,865,859,822,808,788,764,755,737,725,717,710,699,691,688,688,691,697,702,710,717,724,727,732,731,731,734,741,756,769,770,762,765,770,770,758,758,757,756,753,751,748,743,741,742,745,750,766,776,789,807,825,836,840,898,906,914,920,926,937,946,952,956,65535,65535,65535,65535,65535,65535,65535,65535,65535,65535,65535,65535,65535,65535,65535,65535,65535,65535,65535,65535,65535,65535
920,915,907,900,891,887,886,874,858,850,816,804,788,764,758,737,718,714,708,699,692,687,687,687,694,700,707,713,717,720,725,728,732,735,740,753,763,762,754,755,757,758,758,758,747,747,744,742,740,735,734,736,740,744,766,771,782,798,811,824,841,858,904,921,928,934,943,952,952,952,65535,65535,65535,65535,65535,65535,65535,65535,65535,65535,65535,65535,65535,65535,65535,65535,65535,65535,65535,65535,65535,65535
65535,903,902,897,888,883,880,870,850,839,815,801,786,775,758,738,719,712,709,702,695,691,687,687,693,699,709,711,712,713,715,723,736,738,743,750,754,752,749,742,740,742,744,745,747,747,732,732,731,729,727,729,734,740,757,767,777,792,805,821,844,858,892,917,930,937,941,947,947,944,65535,65535,65535,65535,65535,65535,65535,65535,65535,65535,65535,65535,65535,65535,65535,65535,65535,65535,65535,65535,65535,65535
65535,895,892,892,885,879,869,865,858,832,810,794,786,775,757,738,719,712,709,703,696,690,686,686,692,697,708,709,707,707,707,716,729,738,737,740,743,745,741,734,732,730,730,731,732,732,732,732,721,720,721,726,735,745,754,770,782,793,803,821,837,851,882,906,930,933,936,938,935,935,65535,65535,65535,65535,65535,65535,65535,65535,65535,65535,65535,65535,65535,65535,65535,65535,65535,65535,65535,65535,65535,65535
65535,889,886,884,878,869,863,863,857,819,799,787,776,768,756,735,728,712,709,699,690,688,685,686,688,696,705,706,703,701,702,720,725,729,729,729,732,736,733,726,725,723,721,719,720,723,724,722,721,720,717,728,739,748,756,773,781,787,797,811,829,843,854,892,920,928,930,927,925,929,65535,65535,65535,65535,65535,65535,65535,65535,65535,65535,65535,65535,65535,65535,65535,65535,65535,65535,65535,65535,65535,65535
65535,887,880,876,870,865,861,860,853,806,793,779,768,762,745,728,720,709,706,699,690,685,686,686,689,697,703,701,699,700,707,715,725,723,722,721,723,726,725,716,718,717,713,712,710,711,713,715,713,714,717,729,739,747,756,770,776,784,792,803,820,836,849,889,912,920,922,921,921,923,65535,65535,65535,65535,65535,65535,65535,65535,65535,65535,65535,65535,65535,65535,65535,65535,65535,65535,65535,65535,65535,65535
65535,888,878,871,868,863,859,856,848,805,793,776,760,759,738,722,713,704,700,689,683,685,686,686,688,694,699,698,699,705,710,712,719,718,717,718,719,720,714,709,710,708,706,706,703,702,704,706,709,711,720,729,739,743,751,768,775,783,787,798,814,834,849,871,897,912,917,919,918,918,65535,65535,65535,65535,65535,65535,65535,65535,65535,65535,65535,65535,65535,65535,65535,65535,65535,65535,65535,65535,65535,65535
65535,886,873,868,866,861,857,852,840,818,793,774,759,753,734,718,714,707,694,685,681,684,685,686,688,692,697,697,700,707,708,710,711,711,712,714,716,712,708,704,701,699,699,699,698,698,698,700,703,712,721,729,737,743,751,754,771,779,786,792,799,823,845,857,888,903,912,912,913,915,65535,65535,65535,65535,65535,65535,65535,65535,65535,65535,65535,65535,65535,65535,65535,65535,65535,65535,65535,65535,65535,65535
65535,879,871,866,864,860,854,846,826,813,792,777,763,746,734,729,721,712,695,688,687,686,685,686,688,690,695,695,697,702,706,707,705,705,708,709,709,708,704,703,697,694,695,696,695,695,697,697,700,706,716,724,732,740,746,754,771,777,785,787,797,817,842,854,878,891,902,906,907,910,65535,65535,65535,65535,65535,65535,65535,65535,65535,65535,65535,65535,65535,65535,65535,65535,65535,65535,65535,65535,65535,65535
65535,872,869,862,859,856,849,834,814,802,793,782,769,755,743,738,733,719,696,691,690,688,687,687,690,693,695,694,696,700,703,703,703,707,708,707,706,706,703,701,697,692,693,694,693,693,693,694,701,705,710,717,731,737,743,750,767,777,785,780,788,818,836,847,866,880,895,900,904,907,65535,65535,65535,65535,65535,65535,65535,65535,65535,65535,65535,65535,65535,65535,65535,65535,65535,65535,65535,65535,65535,65535
65535,868,863,854,853,851,842,828,810,798,794,779,769,749,743,740,736,720,697,691,688,688,687,688,690,694,695,694,696,699,700,702,704,708,708,705,704,705,705,700,695,691,692,692,691,690,690,692,695,707,711,721,728,734,737,742,751,773,778,780,788,804,831,841,859,870,886,896,903,910,65535,65535,65535,65535,65535,65535,65535,65535,65535,65535,65535,65535,65535,65535,65535,65535,65535,65535,65535,65535,65535,65535
65535,868,862,850,850,844,829,814,800,791,787,766,748,734,733,731,722,719,710,692,687,686,686,686,688,690,695,697,699,699,700,697,703,711,707,704,703,704,704,700,695,691,691,692,691,690,691,694,698,707,710,717,726,728,731,736,744,763,769,774,785,804,817,832,843,864,875,888,902,911,65535,65535,65535,65535,65535,65535,65535,65535,65535,65535,65535,65535,65535,65535,65535,65535,65535,65535,65535,65535,65535,65535
65535,868,863,855,851,837,819,804,790,781,774,750,738,729,726,719,715,712,712,692,686,685,686,687,687,688,695,698,697,695,696,697,703,706,706,701,702,704,704,701,697,694,691,693,692,692,693,696,699,705,706,710,715,720,724,729,737,750,759,767,778,798,817,832,836,861,869,885,901,909,65535,65535,65535,65535,65535,65535,65535,65535,65535,65535,65535,65535,65535,65535,65535,65535,65535,65535,65535,65535,65535,65535
65535,870,863,857,850,835,821,804,790,779,763,751,730,724,719,712,709,707,707,693,688,687,688,688,689,690,696,698,696,693,695,698,702,706,706,700,700,703,702,700,696,693,688,688,690,690,691,694,697,700,703,703,706,712,717,721,728,743,750,757,769,787,807,821,836,861,871,886,892,900,910,65535,65535,65535,65535,65535,65535,65535,65535,65535,65535,65535,65535,65535,65535,65535,65535,65535,65535,65535,65535,65535
65535,65535,863,862,850,835,819,806,790,780,756,745,722,716,712,705,702,702,701,699,689,687,688,689,690,692,697,701,699,696,696,697,698,703,704,700,698,700,700,698,694,690,685,687,689,689,690,693,694,696,699,699,700,706,711,714,723,731,746,760,772,779,785,810,834,845,871,886,878,888,907,65535,65535,65535,65535,65535,65535,65535,65535,65535,65535,65535,65535,65535,65535,65535,65535,65535,65535,65535,65535,65535
65535,65535,862,860,844,832,819,806,786,775,753,740,718,710,706,703,698,697,697,697,688,687,688,689,691,694,700,704,702,696,695,696,698,701,704,698,698,700,698,696,693,689,686,687,688,689,690,692,693,694,696,694,695,699,709,714,722,732,746,757,770,773,780,796,826,839,860,871,878,888,889,901,65535,65535,65535,65535,65535,65535,65535,65535,65535,65535,65535,65535,65535,65535,65535,65535,65535,65535,65535,65535
65535,65535,859,854,845,822,812,799,786,766,748,733,711,706,705,702,698,693,693,692,689,688,688,689,690,694,705,706,701,695,695,697,700,701,703,698,696,698,698,696,694,690,686,686,688,690,691,693,694,694,695,692,694,699,704,711,721,728,743,752,764,774,780,795,815,833,848,857,866,878,889,882,65535,65535,65535,65535,65535,65535,65535,65535,65535,65535,65535,65535,65535,65535,65535,65535,65535,65535,65535,65535
65535,65535,856,849,838,810,801,792,782,766,748,726,717,704,702,701,698,694,689,689,689,689,688,688,688,692,702,701,698,694,695,699,700,700,701,697,693,695,697,698,694,690,688,687,689,692,693,694,696,696,694,693,697,700,703,709,715,721,726,744,758,775,780,787,806,817,836,849,856,863,870,882,65535,65535,65535,65535,65535,65535,65535,65535,65535,65535,65535,65535,65535,65535,65535,65535,65535,65535,65535,65535
65535,65535,850,840,828,804,794,783,772,760,742,726,717,701,699,698,696,693,691,691,690,687,686,686,688,693,699,697,695,694,694,697,698,699,699,697,690,692,696,697,695,690,688,687,693,694,693,694,697,697,696,696,699,701,704,707,711,717,722,745,761,770,775,782,793,802,809,834,846,856,863,873,889,65535,65535,65535,65535,65535,65535,65535,65535,65535,65535,65535,65535,65535,65535,65535,65535,65535,65535,65535
65535,65535,842,831,823,813,789,774,764,754,737,725,715,701,699,698,696,696,699,700,697,686,684,685,689,695,698,694,691,692,693,694,698,701,701,695,689,691,693,694,691,689,688,689,693,692,693,695,697,698,697,699,701,705,708,709,714,721,726,747,760,765,770,776,782,790,799,818,835,850,859,864,876,65535,65535,65535,65535,65535,65535,65535,65535,65535,65535,65535,65535,65535,65535,65535,65535,65535,65535,65535
65535,65535,841,830,820,810,788,773,760,751,736,724,714,707,700,698,696,704,705,703,700,687,685,687,690,695,698,692,690,693,695,698,701,703,703,699,689,689,691,691,688,687,689,692,693,692,693,694,697,698,700,702,704,709,714,716,720,723,726,732,754,759,767,775,779,786,794,809,822,835,846,857,865,65535,65535,65535,65535,65535,65535,65535,65535,65535,65535,65535,65535,65535,65535,65535,65535,65535,65535,65535
65535,65535,65535,837,826,810,793,784,768,753,740,732,721,711,710,708,706,704,702,700,697,697,689,688,687,689,690,692,694,702,705,704,701,698,698,697,693,689,689,688,685,686,688,689,688,689,692,694,696,698,702,704,708,710,712,714,715,717,722,728,737,741,748,756,768,776,783,787,792,797,804,822,843,65535,65535,65535,65535,65535,65535,65535,65535,65535,65535,65535,65535,65535,65535,65535,65535,65535,65535,65535
65535,65535,65535,841,827,814,804,786,770,754,744,736,727,716,711,706,702,701,699,697,697,697,691,690,689,688,687,693,698,706,706,704,698,694,693,692,691,687,687,685,684,684,686,688,689,693,695,695,696,699,702,704,707,708,709,709,710,713,716,722,732,738,744,749,760,771,779,784,783,784,790,806,823,835,65535,65535,65535,65535,65535,65535,65535,65535,65535,65535,65535,65535,65535,65535,65535,65535,65535,65535
65535,65535,65535,849,837,826,813,791,775,759,747,738,727,720,713,704,700,698,699,697,698,697,693,690,688,685,686,691,697,705,706,703,698,693,690,687,687,685,684,684,683,686,687,689,691,699,700,699,699,699,701,702,704,708,709,708,710,711,713,715,719,731,737,742,749,759,770,778,778,780,785,796,807,816,826,836,65535,65535,65535,65535,65535,65535,65535,65535,65535,65535,65535,65535,65535,65535,65535,65535
65535,65535,65535,851,845,834,819,794,781,772,763,744,732,724,718,708,704,702,702,699,697,695,693,691,688,685,685,691,695,700,704,702,699,696,689,684,683,683,683,683,687,690,691,691,693,702,704,704,703,702,700,699,700,705,707,708,707,709,709,711,715,727,733,738,745,753,761,768,771,774,778,784,793,801,810,822,65535,65535,65535,65535,65535,65535,65535,65535,65535,65535,65535,65535,65535,65535,65535,65535
65535,65535,65535,65535,850,838,823,810,786,778,768,749,734,725,720,712,707,704,701,698,696,694,694,690,685,683,685,692,695,696,700,699,699,695,688,685,683,682,684,687,691,697,696,696,697,699,704,704,703,701,698,697,698,699,703,705,707,709,708,711,717,724,729,734,740,747,753,757,759,763,767,773,782,791,797,804,815,65535,65535,65535,65535,65535,65535,65535,65535,65535,65535,65535,65535,65535,65535,65535
65535,65535,65535,65535,850,844,833,818,788,778,767,752,734,722,716,714,707,704,702,698,697,695,697,696,686,685,689,692,695,695,695,696,694,691,686,684,684,685,689,692,695,697,697,697,698,700,703,702,701,699,697,696,697,698,700,701,703,705,708,711,718,719,723,727,732,740,744,746,747,752,758,765,773,782,789,793,801,65535,65535,65535,65535,65535,65535,65535,65535,65535,65535,65535,65535,65535,65535,65535
65535,65535,65535,65535,849,846,842,822,792,780,767,750,732,723,718,713,707,706,705,705,703,700,700,700,690,687,689,691,694,695,695,694,691,687,683,683,683,687,692,692,693,695,695,695,696,698,700,699,699,698,696,695,696,697,697,697,700,705,710,715,718,719,718,722,727,731,734,736,738,741,747,755,764,771,777,781,784,795,65535,65535,65535,65535,65535,65535,65535,65535,65535,65535,65535,65535,65535,65535
65535,65535,65535,65535,843,845,834,820,795,783,769,754,739,727,720,716,710,708,709,708,708,705,704,703,693,689,688,691,694,695,695,694,692,688,684,683,685,688,691,692,693,693,692,692,693,697,698,695,695,695,694,695,695,695,696,697,700,705,710,713,713,714,718,722,724,726,729,733,734,733,740,745,751,760,769,772,777,784,65535,65535,65535,65535,65535,65535,65535,65535,65535,65535,65535,65535,65535,65535
65535,65535,65535,65535,845,841,831,819,807,782,769,753,736,727,720,714,710,706,705,704,705,704,703,702,693,688,689,692,694,694,695,696,692,688,686,687,687,688,689,690,691,690,690,690,691,693,695,693,692,692,692,693,694,694,695,700,701,705,707,708,707,708,710,719,724,726,724,728,728,727,731,739,747,751,760,767,773,780,65535,65535,65535,65535,65535,65535,65535,65535,65535,65535,65535,65535,65535,65535
65535,65535,65535,65535,845,838,826,815,804,774,763,745,735,726,718,711,706,702,699,699,698,699,698,697,693,686,688,691,691,691,693,695,691,688,686,687,686,686,686,688,688,689,688,687,687,689,691,691,690,691,692,695,695,695,696,701,702,701,702,702,702,703,707,717,722,723,724,721,724,722,721,732,737,742,750,758,769,778,65535,65535,65535,65535,65535,65535,65535,65535,65535,65535,65535,65535,65535,65535
65535,65535,65535,65535,849,838,826,814,800,769,753,743,736,729,717,710,704,696,695,693,693,693,695,692,688,683,685,687,688,688,689,690,690,687,686,687,686,686,686,687,690,691,690,689,688,689,690,691,692,694,696,697,697,698,698,701,700,699,699,699,700,703,707,714,717,718,719,721,724,715,713,725,730,733,740,751,763,776,778,65535,65535,65535,65535,65535,65535,65535,65535,65535,65535,65535,65535,65535
65535,65535,65535,65535,65535,843,826,814,800,784,757,745,739,729,720,711,705,698,696,692,692,693,692,689,685,683,683,684,687,687,687,687,687,686,686,686,685,684,686,687,693,694,694,693,692,692,693,694,697,697,697,697,698,697,697,697,697,698,697,698,700,704,707,710,711,713,714,714,717,715,713,718,726,730,736,745,756,763,768,775,65535,65535,65535,65535,65535,65535,65535,65535,65535,65535,65535,65535
65535,65535,65535,65535,65535,65535,830,817,801,784,757,746,737,729,719,712,708,707,701,698,698,696,693,688,685,684,682,685,687,687,686,687,686,685,685,684,684,685,687,688,693,695,696,696,695,696,697,698,697,696,695,695,695,695,696,696,695,696,698,700,704,706,707,708,708,709,709,710,711,710,708,712,726,730,734,745,751,755,755,762,65535,65535,65535,65535,65535,65535,65535,65535,65535,65535,65535,65535
65535,65535,65535,65535,65535,65535,833,818,803,785,758,746,737,722,715,710,708,708,701,699,699,697,692,689,690,688,682,685,687,687,686,686,686,685,684,683,684,685,688,689,691,695,696,697,696,696,699,700,696,693,692,693,694,695,696,695,695,698,701,703,706,707,706,705,705,707,709,709,708,707,707,710,724,730,734,742,744,744,743,748,755,65535,65535,65535,65535,65535,65535,65535,65535,65535,65535,65535
65535,65535,65535,65535,65535,65535,827,815,797,781,766,743,732,722,713,707,705,704,699,699,698,696,693,693,695,693,683,684,686,686,685,686,686,684,683,682,682,684,688,690,691,695,696,697,696,695,698,700,700,693,691,694,695,695,694,693,694,700,703,704,705,706,704,702,703,704,706,706,705,706,709,714,719,726,736,742,736,734,734,739,747,757,65535,65535,65535,65535,65535,65535,65535,65535,65535,65535
65535,65535,65535,65535,65535,65535,65535,809,792,780,765,734,727,720,713,707,703,702,702,699,697,697,697,699,699,698,684,684,685,686,687,688,687,684,682,681,683,685,690,693,693,695,695,695,695,695,698,699,699,691,692,694,694,694,694,695,697,703,705,705,705,703,701,699,699,702,703,704,705,710,714,717,723,732,738,741,736,734,728,735,742,749,65535,65535,65535,65535,65535,65535,65535,65535,65535,65535
65535,65535,65535,65535,65535,65535,65535,65535,792,781,767,735,727,726,717,708,703,702,706,701,702,702,702,702,702,704,693,690,691,690,690,689,689,687,682,683,685,687,691,696,697,693,692,692,692,694,697,699,699,691,691,692,693,694,697,699,700,702,703,704,704,702,699,698,698,702,704,704,708,712,716,720,724,734,739,737,730,724,728,728,736,743,750,759,65535,65535,65535,65535,65535,65535,65535,65535
65535,65535,65535,65535,65535,65535,65535,65535,794,782,772,740,736,732,725,716,709,708,706,701,705,706,704,703,702,703,700,698,695,692,690,689,688,687,682,683,686,688,692,697,696,694,689,689,691,692,693,695,694,692,691,692,694,696,699,702,702,703,703,702,702,700,699,698,698,703,706,705,707,711,715,719,722,727,729,725,718,717,720,728,736,736,746,757,65535,65535,65535,65535,65535,65535,65535,65535
65535,65535,65535,65535,65535,65535,65535,65535,796,788,777,765,741,736,728,721,715,713,710,707,705,706,703,701,699,700,701,700,698,693,689,688,687,685,681,682,685,687,690,694,695,692,689,689,690,690,691,691,691,689,691,692,701,701,702,704,705,704,702,701,700,698,696,696,697,700,707,707,707,711,714,715,718,717,713,711,712,714,717,721,729,736,746,752,760,65535,65535,65535,65535,65535,65535,65535
65535,65535,65535,65535,65535,65535,65535,65535,799,790,780,767,744,735,727,719,714,712,708,706,705,705,703,701,697,697,699,702,701,697,694,689,688,685,683,682,684,686,689,692,692,689,689,690,690,689,688,690,690,690,696,698,701,701,702,702,703,703,701,700,698,695,695,696,698,702,705,705,706,709,711,712,712,711,709,710,712,714,714,717,727,736,743,752,754,65535,65535,65535,65535,65535,65535,65535
65535,65535,65535,65535,65535,65535,65535,65535,65535,781,773,762,742,732,723,718,715,710,705,702,700,701,700,698,697,696,695,696,696,697,696,695,692,686,683,682,683,685,687,690,690,688,687,689,688,686,687,689,691,693,697,700,702,701,702,702,702,701,697,696,695,694,694,696,701,705,702,701,702,705,707,708,708,707,708,710,712,714,714,720,724,735,743,748,754,65535,65535,65535,65535,65535,65535,65535
65535,65535,65535,65535,65535,65535,65535,65535,65535,65535,767,752,744,721,718,716,714,708,702,701,699,698,697,696,695,696,693,690,690,692,695,697,694,690,684,681,681,683,685,687,688,687,688,690,690,688,688,691,694,696,697,698,698,699,700,700,702,701,695,693,694,694,695,699,702,702,700,700,702,704,704,704,703,704,706,708,711,712,716,722,725,732,738,746,752,65535,65535,65535,65535,65535,65535,65535
65535,65535,65535,65535,65535,65535,65535,65535,65535,65535,65535,746,736,720,716,714,710,704,701,702,705,700,697,695,695,696,693,691,688,689,691,693,695,692,689,680,679,681,683,685,686,687,689,693,693,692,692,694,697,699,700,696,697,698,700,701,701,699,695,693,695,698,700,701,702,700,698,700,702,703,703,702,701,702,703,706,708,712,716,720,721,729,734,742,749,65535,65535,65535,65535,65535,65535,65535
65535,65535,65535,65535,65535,65535,65535,65535,65535,65535,65535,743,735,716,711,707,704,702,700,703,705,700,697,696,696,696,691,689,688,689,687,689,692,692,690,686,681,681,682,684,687,689,691,693,694,693,695,697,701,702,703,700,699,700,702,702,701,699,696,694,695,698,700,701,701,699,697,699,700,702,702,701,701,701,703,707,709,711,712,716,718,724,734,739,750,65535,65535,65535,65535,65535,65535,65535
65535,65535,65535,65535,65535,65535,65535,65535,65535,65535,65535,747,736,723,713,708,706,702,700,700,701,696,696,696,696,695,691,691,690,688,687,689,689,690,689,688,683,681,682,684,688,691,693,695,694,694,695,700,703,702,700,701,705,705,704,704,702,700,698,694,695,698,700,698,697,694,694,696,697,699,701,700,701,703,704,709,713,711,712,716,720,726,733,738,747,754,65535,65535,65535,65535,65535,65535
65535,65535,65535,65535,65535,65535,65535,65535,65535,65535,65535,753,742,731,722,717,713,707,702,701,698,694,696,696,695,693,694,697,696,690,687,688,689,690,687,688,683,682,683,685,687,692,696,698,698,697,699,702,703,699,696,697,706,707,705,702,701,699,699,696,693,696,698,698,697,692,693,695,697,700,700,701,703,706,708,712,712,711,710,718,723,725,731,735,743,754,766,65535,65535,65535,65535,65535
65535,65535,65535,65535,65535,65535,65535,65535,65535,65535,65535,65535,748,737,726,722,717,710,706,703,698,695,695,696,694,695,701,702,703,696,690,688,688,688,687,685,683,683,685,687,690,694,697,698,700,701,702,704,703,699,695,697,703,703,701,700,700,700,698,696,693,695,698,696,693,692,693,696,702,702,702,702,704,706,709,710,710,708,709,717,720,722,727,737,746,757,764,65535,65535,65535,65535,65535
65535,65535,65535,65535,65535,65535,65535,65535,65535,65535,65535,65535,65535,740,727,724,719,713,707,702,700,699,699,698,698,700,703,702,701,696,694,690,687,685,685,685,683,683,686,689,693,696,695,695,697,701,703,705,703,697,696,697,697,696,695,698,699,699,697,694,694,696,697,696,692,691,693,696,702,702,702,702,704,705,707,708,707,707,710,718,720,724,732,739,747,756,761,65535,65535,65535,65535,65535
65535,65535,65535,65535,65535,65535,65535,65535,65535,65535,65535,65535,65535,748,740,725,721,716,709,704,700,699,699,698,699,700,700,697,695,694,693,690,686,683,683,683,682,683,686,690,694,695,694,693,695,701,704,705,700,696,694,694,693,691,695,697,698,697,694,693,693,696,696,693,691,692,695,701,705,702,700,701,703,704,705,705,706,708,714,722,722,726,733,739,745,753,758,65535,65535,65535,65535,65535
65535,65535,65535,65535,65535,65535,65535,65535,65535,65535,65535,65535,65535,65535,65535,725,721,715,708,702,698,697,695,695,696,695,694,692,691,690,689,687,683,681,683,683,683,683,686,690,694,695,695,696,698,701,702,702,699,695,691,690,690,693,696,698,699,695,693,692,693,694,693,691,690,692,699,703,705,700,700,701,703,703,702,703,705,713,718,722,723,725,729,740,746,748,759,770,65535,65535,65535,65535
65535,65535,65535,65535,65535,65535,65535,65535,65535,65535,65535,65535,65535,65535,65535,724,716,710,704,700,698,695,694,693,693,691,690,690,689,688,689,686,683,680,681,683,684,683,687,691,693,695,695,698,701,702,700,701,700,698,694,691,690,694,697,699,699,695,691,692,694,693,693,693,693,696,701,704,703,697,698,701,703,703,702,704,707,713,716,718,719,721,724,731,742,748,755,768,65535,65535,65535,65535
65535,65535,65535,65535,65535,65535,65535,65535,65535,65535,65535,65535,65535,65535,65535,728,712,705,701,698,697,697,697,696,693,692,693,692,691,690,692,690,684,680,678,682,684,685,688,689,692,695,697,698,702,701,698,701,703,702,697,692,691,691,696,699,698,695,692,693,696,698,699,698,698,699,700,701,700,697,698,701,702,701,702,704,710,711,713,714,717,720,724,729,739,747,756,768,65535,65535,65535,65535
65535,65535,65535,65535,65535,65535,65535,65535,65535,65535,65535,65535,65535,65535,65535,65535,710,704,701,699,702,702,703,702,698,696,696,695,694,694,695,688,685,681,681,683,685,686,686,687,691,694,696,698,702,701,697,700,704,701,695,691,691,692,696,697,696,694,692,694,699,704,703,701,700,699,699,698,698,697,698,700,701,701,703,707,710,711,710,714,716,721,725,728,740,749,758,766,778,65535,65535,65535
65535,65535,65535,65535,65535,65535,65535,65535,65535,65535,65535,65535,65535,65535,65535,65535,65535,704,711,710,709,707,707,706,702,701,699,697,696,697,695,687,684,683,684,686,688,686,686,687,690,694,696,699,700,698,695,700,701,697,691,691,693,694,696,696,694,692,691,693,698,703,703,700,699,699,697,697,696,696,697,697,699,701,705,708,708,707,710,711,715,720,725,728,734,750,758,769,779,787,65535,65535
65535,65535,65535,65535,65535,65535,65535,65535,65535,65535,65535,65535,65535,65535,65535,65535,65535,715,711,714,710,709,706,706,705,703,700,698,697,697,696,690,686,683,684,688,688,687,685,688,690,694,697,698,696,694,695,702,701,697,692,693,695,697,697,694,694,693,694,695,698,701,700,697,697,696,695,695,695,695,696,696,699,702,706,708,706,704,705,711,717,722,726,727,731,747,758,771,783,789,65535,65535
65535,65535,65535,65535,65535,65535,65535,65535,65535,65535,65535,65535,65535,65535,65535,65535,65535,65535,716,714,710,705,701,702,704,699,697,696,696,696,696,693,689,687,688,688,688,686,686,690,692,694,695,695,693,693,694,699,698,694,692,693,696,697,697,693,694,696,698,699,700,699,699,696,694,693,692,695,697,698,698,698,699,701,705,707,706,704,706,712,717,722,728,729,730,746,758,772,782,790,65535,65535
65535,65535,65535,65535,65535,65535,65535,65535,65535,65535,65535,65535,65535,65535,65535,65535,65535,65535,65535,709,707,705,701,699,700,695,693,692,692,693,694,694,691,690,688,687,685,684,685,688,691,691,693,693,692,693,696,698,696,693,691,692,696,697,695,692,694,697,700,701,699,699,698,695,692,691,692,697,700,701,701,701,699,701,704,706,707,708,710,717,720,725,728,729,736,740,756,770,781,788,65535,65535
65535,65535,65535,65535,65535,65535,65535,65535,65535,65535,65535,65535,65535,65535,65535,65535,65535,65535,65535,705,702,700,698,699,700,693,690,690,690,691,691,691,690,689,686,684,682,682,683,686,689,691,692,693,695,697,698,697,693,690,690,693,696,697,695,692,694,697,700,700,699,698,697,693,692,692,695,698,700,701,701,701,701,703,704,707,708,709,712,717,721,725,728,732,736,740,751,766,775,783,65535,65535
65535,65535,65535,65535,65535,65535,65535,65535,65535,65535,65535,65535,65535,65535,65535,65535,65535,65535,65535,65535,702,699,697,697,696,695,690,690,690,690,690,689,688,687,685,682,681,680,682,685,690,694,697,699,700,700,700,698,694,691,690,692,692,694,693,692,694,698,700,700,699,697,694,693,692,693,693,695,697,699,699,700,701,703,704,705,706,708,710,714,719,722,725,728,732,733,751,766,771,781,65535,65535
65535,65535,65535,65535,65535,65535,65535,65535,65535,65535,65535,65535,65535,65535,65535,65535,65535,65535,65535,65535,701,700,698,697,695,694,690,690,692,692,691,691,692,689,686,683,680,679,681,684,694,698,702,703,702,701,702,700,697,693,692,689,689,691,692,693,695,698,700,700,700,697,694,692,693,692,692,693,696,697,698,699,701,701,702,703,704,706,707,713,716,719,721,723,728,734,751,761,771,780,789,65535
65535,65535,65535,65535,65535,65535,65535,65535,65535,65535,65535,65535,65535,65535,65535,65535,65535,65535,65535,65535,699,698,698,698,698,697,692,692,692,696,697,697,696,692,688,684,681,678,680,684,690,698,701,701,700,700,701,701,700,695,692,688,686,688,691,695,696,698,700,700,700,697,694,693,693,693,693,694,695,695,697,699,700,701,702,703,705,707,710,716,717,718,719,721,727,735,743,761,770,780,789,799
65535,65535,65535,65535,65535,65535,65535,65535,65535,65535,65535,65535,65535,65535,65535,65535,65535,65535,65535,65535,698,696,698,701,700,699,693,696,697,696,697,697,695,691,688,685,682,679,681,688,692,697,699,700,699,699,700,701,700,695,691,687,688,690,695,697,698,699,700,700,699,697,694,695,696,697,699,699,699,698,699,700,700,701,702,703,706,709,712,717,718,718,719,722,727,733,743,760,769,782,792,799
65535,65535,65535,65535,65535,65535,65535,65535,65535,65535,65535,65535,65535,65535,65535,65535,65535,65535,65535,65535,700,697,699,702,702,701,695,697,698,698,698,697,695,690,687,684,682,680,685,691,697,700,700,700,699,700,701,701,700,695,690,689,692,697,698,699,698,698,697,697,697,696,695,695,702,702,701,701,700,699,700,701,700,703,704,704,706,709,712,714,715,717,718,723,727,733,741,756,765,781,791,799
65535,65535,65535,65535,65535,65535,65535,65535,65535,65535,65535,65535,65535,65535,65535,65535,65535,65535,65535,65535,703,702,705,706,705,703,696,697,697,695,694,694,692,690,687,684,682,683,686,693,697,699,699,698,698,699,701,701,700,695,691,690,693,698,699,697,697,695,692,691,693,695,697,699,702,702,700,699,699,700,699,699,699,704,705,705,706,709,710,711,712,714,718,723,728,731,737,745,763,773,786,796
65535,65535,65535,65535,65535,65535,65535,65535,65535,65535,65535,65535,65535,65535,65535,65535,65535,65535,65535,65535,65535,709,710,709,706,703,697,696,694,692,691,691,691,689,686,684,682,685,687,691,695,698,697,694,695,697,700,701,699,697,689,689,692,697,699,698,697,696,691,689,691,695,700,703,704,701,700,699,699,699,699,699,700,704,705,706,707,709,710,709,709,711,715,722,726,729,734,741,759,767,778,65535
65535,65535,65535,65535,65535,65535,65535,65535,65535,65535,65535,65535,65535,65535,65535,65535,65535,65535,65535,65535,65535,65535,65535,65535,705,704,701,696,693,692,692,692,693,692,686,684,683,685,687,691,694,695,695,694,693,696,699,699,698,695,689,688,690,696,698,698,695,693,690,689,690,695,701,701,701,699,697,698,699,699,701,701,702,704,705,705,705,705,705,707,709,710,716,720,724,729,734,740,756,763,771,65535
65535,65535,65535,65535,65535,65535,65535,65535,65535,65535,65535,65535,65535,65535,65535,65535,65535,65535,65535,65535,65535,65535,65535,65535,65535,704,703,698,697,697,698,698,698,696,690,684,685,685,687,691,691,692,694,695,695,697,698,699,697,695,689,687,689,694,699,697,694,692,692,692,693,696,698,699,698,696,696,698,700,700,701,701,704,704,703,702,701,702,702,706,708,715,719,724,728,735,739,743,749,762,769,65535
65535,65535,65535,65535,65535,65535,65535,65535,65535,65535,65535,65535,65535,65535,65535,65535,65535,65535,65535,65535,65535,65535,65535,65535,65535,65535,704,700,698,700,700,698,697,695,691,686,686,687,687,689,691,692,691,696,697,698,698,698,696,693,691,688,689,695,698,696,692,692,693,695,695,696,697,698,696,695,698,700,701,702,703,703,704,704,702,702,703,705,706,707,708,713,720,725,731,737,741,745,749,765,65535,65535
65535,65535,65535,65535,65535,65535,65535,65535,65535,65535,65535,65535,65535,65535,65535,65535,65535,65535,65535,65535,65535,65535,65535,65535,65535,65535,65535,703,702,701,698,695,694,693,689,685,686,687,688,689,690,690,691,696,696,696,697,696,694,691,690,691,694,696,697,693,690,691,694,697,698,699,698,698,696,696,698,702,703,703,702,703,703,702,702,704,707,709,711,710,710,711,717,723,728,734,740,744,751,768,65535,65535
65535,65535,65535,65535,65535,65535,65535,65535,65535,65535,65535,65535,65535,65535,65535,65535,65535,65535,65535,65535,65535,65535,65535,65535,65535,65535,65535,65535,705,703,699,696,695,692,688,685,685,687,689,689,689,690,692,696,696,696,695,694,691,690,690,694,696,698,697,692,689,691,694,698,699,699,698,696,696,698,700,702,702,701,700,702,702,700,701,704,707,709,712,714,714,714,719,722,727,733,741,747,756,771,65535,65535
65535,65535,65535,65535,65535,65535,65535,65535,65535,65535,65535,65535,65535,65535,65535,65535,65535,65535,65535,65535,65535,65535,65535,65535,65535,65535,65535,65535,65535,65535,702,700,698,695,690,686,685,687,688,687,687,689,693,696,696,695,695,694,689,689,692,695,698,697,695,691,690,691,693,696,697,697,696,695,697,699,701,699,698,697,697,700,700,700,701,707,708,709,712,717,719,720,722,724,726,731,738,746,754,762,65535,65535
65535,65535,65535,65535,65535,65535,65535,65535,65535,65535,65535,65535,65535,65535,65535,65535,65535,65535,65535,65535,65535,65535,65535,65535,65535,65535,65535,65535,65535,65535,65535,65535,699,696,693,689,686,686,686,686,688,691,694,698,696,694,692,691,689,692,694,697,698,696,693,691,690,691,692,691,695,696,694,693,695,698,700,697,695,696,697,699,700,699,701,706,706,708,711,717,719,720,721,723,727,730,736,743,753,65535,65535,65535
65535,65535,65535,65535,65535,65535,65535,65535,65535,65535,65535,65535,65535,65535,65535,65535,65535,65535,65535,65535,65535,65535,65535,65535,65535,65535,65535,65535,65535,65535,65535,65535,65535,695,693,690,689,685,683,682,686,692,695,696,694,691,689,689,689,692,694,698,698,695,693,692,690,690,690,690,696,697,694,693,693,696,696,695,695,697,698,700,700,699,701,703,706,708,711,718,719,720,717,721,726,731,736,747,756,65535,65535,65535
65535,65535,65535,65535,65535,65535,65535,65535,65535,65535,65535,65535,65535,65535,65535,65535,65535,65535,65535,65535,65535,65535,65535,65535,65535,65535,65535,65535,65535,65535,65535,65535,65535,698,700,700,696,687,682,681,685,690,692,694,691,687,685,688,694,697,697,697,697,694,693,692,693,693,693,694,695,701,700,698,697,698,699,700,701,701,701,702,704,703,705,708,710,711,711,710,710,711,715,719,725,734,741,752,760,65535,65535,65535
65535,65535,65535,65535,65535,65535,65535,65535,65535,65535,65535,65535,65535,65535,65535,65535,65535,65535,65535,65535,65535,65535,65535,65535,65535,65535,65535,65535,65535,65535,65535,65535,65535,65535,700,700,696,687,682,681,683,687,689,689,686,686,687,689,695,697,696,693,692,690,692,692,693,696,696,695,697,702,702,700,699,700,702,704,705,703,701,702,704,705,706,707,706,708,708,708,709,711,716,721,725,734,741,753,765,65535,65535,65535
65535,65535,65535,65535,65535,65535,65535,65535,65535,65535,65535,65535,65535,65535,65535,65535,65535,65535,65535,65535,65535,65535,65535,65535,65535,65535,65535,65535,65535,65535,65535,65535,65535,695,697,697,694,689,680,678,680,684,686,686,686,686,689,693,697,698,696,692,689,689,690,693,694,696,696,697,698,702,703,702,701,703,704,705,705,702,701,700,701,702,705,704,703,705,708,712,713,715,718,721,728,736,743,753,65535,65535,65535,65535
65535,65535,65535,65535,65535,65535,65535,65535,65535,65535,65535,65535,65535,65535,65535,65535,65535,65535,65535,65535,65535,65535,65535,65535,65535,65535,65535,65535,65535,65535,65535,65535,692,692,694,695,692,687,677,676,679,682,684,684,685,687,692,695,697,696,694,691,689,690,693,694,695,696,696,697,701,702,702,702,702,704,704,702,702,700,698,697,697,700,702,703,701,705,709,718,719,719,722,725,735,741,746,65535,65535,65535,65535,65535
65535,65535,65535,65535,65535,65535,65535,65535,65535,65535,65535,65535,65535,65535,65535,65535,65535,65535,65535,65535,65535,65535,65535,65535,65535,65535,65535,65535,65535,65535,65535,65535,691,691,693,694,692,688,682,682,686,685,682,680,681,687,694,696,697,695,691,689,689,691,694,695,695,695,696,699,701,701,700,700,702,704,703,700,699,697,692,691,694,698,701,703,704,708,711,718,721,723,726,730,741,744,65535,65535,65535,65535,65535,65535
65535,65535,65535,65535,65535,65535,65535,65535,65535,65535,65535,65535,65535,65535,65535,65535,65535,65535,65535,65535,65535,65535,65535,65535,65535,65535,65535,65535,65535,65535,65535,691,689,690,691,692,692,690,689,690,689,685,681,680,680,682,693,697,699,695,690,688,686,687,689,692,693,696,700,702,702,703,700,700,701,701,700,697,695,692,689,690,694,698,702,705,707,709,713,719,721,723,727,733,739,65535,65535,65535,65535,65535,65535,65535
65535,65535,65535,65535,65535,65535,65535,65535,65535,65535,65535,65535,65535,65535,65535,65535,65535,65535,65535,65535,65535,65535,65535,65535,65535,65535,65535,65535,65535,65535,65535,689,689,690,692,691,690,691,692,694,692,686,685,684,684,686,689,697,700,696,692,687,683,683,684,688,690,694,696,697,698,697,696,699,701,701,693,692,691,689,691,696,699,701,704,706,708,709,713,717,720,65535,65535,65535,65535,65535,65535,65535,65535,65535,65535,65535
65535,65535,65535,65535,65535,65535,65535,65535,65535,65535,65535,65535,65535,65535,65535,65535,65535,65535,65535,65535,65535,65535,65535,65535,65535,65535,65535,65535,65535,65535,65535,65535,689,690,692,691,690,691,694,699,698,694,691,692,692,691,689,696,699,699,695,687,681,680,682,685,687,688,689,689,688,688,689,693,694,694,693,692,696,695,697,703,706,709,708,707,707,707,710,717,65535,65535,65535,65535,65535,65535,65535,65535,65535,65535,65535,65535
65535,65535,65535,65535,65535,65535,65535,65535,65535,65535,65535,65535,65535,65535,65535,65535,65535,65535,65535,65535,65535,65535,65535,65535,65535,65535,65535,65535,65535,65535,65535,65535,65535,690,690,690,690,691,698,702,702,698,690,685,684,684,687,694,697,697,693,687,683,681,682,682,681,683,683,683,682,682,681,688,690,689,691,693,696,703,703,709,713,713,711,708,707,65535,65535,65535,65535,65535,65535,65535,65535,65535,65535,65535,65535,65535,65535,65535
65535,65535,65535,65535,65535,65535,65535,65535,65535,65535,65535,65535,65535,65535,65535,65535,65535,65535,65535,65535,65535,65535,65535,65535,65535,65535,65535,65535,65535,65535,65535,65535,65535,65535,690,692,692,694,698,700,700,696,691,684,683,687,690,692,693,692,689,687,682,679,679,682,684,687,690,691,690,687,687,690,693,694,697,700,702,703,703,710,711,65535,65535,65535,65535,65535,65535,65535,65535,65535,65535,65535,65535,65535,65535,65535,65535,65535,65535,65535
65535,65535,65535,65535,65535,65535,65535,65535,65535,65535,65535,65535,65535,65535,65535,65535,65535,65535,65535,65535,65535,65535,65535,65535,65535,65535,65535,65535,65535,65535,65535,65535,65535,65535,692,65535,65535,65535,65535,65535,65535,696,691,687,687,691,690,688,690,689,687,685,681,680,682,688,695,698,698,698,699,700,696,695,700,703,704,703,705,706,707,710,65535,65535,65535,65535,65535,65535,65535,65535,65535,65535,65535,65535,65535,65535,65535,65535,65535,65535,65535,65535
65535,65535,65535,65535,65535,65535,65535,65535,65535,65535,65535,65535,65535,65535,65535,65535,65535,65535,65535,65535,65535,65535,65535,65535,65535,65535,65535,65535,65535,65535,65535,65535,65535,65535,65535,65535,65535,65535,65535,65535,65535,695,691,687,686,689,688,686,685,685,686,684,685,686,687,692,699,700,699,698,698,700,700,700,704,706,706,706,707,65535,65535,65535,65535,65535,65535,65535,65535,65535,65535,65535,65535,65535,65535,65535,65535,65535,65535,65535,65535,65535,65535,65535
65535,65535,65535,65535,65535,65535,65535,65535,65535,65535,65535,65535,65535,65535,65535,65535,65535,65535,65535,65535,65535,65535,65535,65535,65535,65535,65535,65535,65535,65535,65535,65535,65535,65535,65535,65535,65535,65535,65535,65535,65535,694,691,687,686,688,688,685,683,685,687,686,684,684,687,691,697,698,697,696,697,701,704,703,704,705,707,708,711,65535,65535,65535,65535,65535,65535,65535,65535,65535,65535,65535,65535,65535,65535,65535,65535,65535,65535,65535,65535,65535,65535,65535
65535,65535,65535,65535,65535,65535,65535,65535,65535,65535,65535,65535,65535,65535,65535,65535,65535,65535,65535,65535,65535,65535,65535,65535,65535,65535,65535,65535,65535,65535,65535,65535,65535,65535,65535,65535,65535,65535,65535,65535,65535,696,693,690,689,688,688,683,680,684,685,681,682,684,687,689,692,696,696,696,697,701,702,702,702,704,708,711,65535,65535,65535,65535,65535,65535,65535,65535,65535,65535,65535,65535,65535,65535,65535,65535,65535,65535,65535,65535,65535,65535,65535,65535
65535,65535,65535,65535,65535,65535,65535,65535,65535,65535,65535,65535,65535,65535,65535,65535,65535,65535,65535,65535,65535,65535,65535,65535,65535,65535,65535,65535,65535,65535,65535,65535,65535,65535,65535,65535,65535,65535,65535,65535,65535,65535,696,694,691,688,686,683,680,678,677,681,687,693,692,691,692,699,702,701,700,701,701,700,700,706,711,65535,65535,65535,65535,65535,65535,65535,65535,65535,65535,65535,65535,65535,65535,65535,65535,65535,65535,65535,65535,65535,65535,65535,65535,65535
65535,65535,65535,65535,65535,65535,65535,65535,65535,65535,65535,65535,65535,65535,65535,65535,65535,65535,65535,65535,65535,65535,65535,65535,65535,65535,65535,65535,65535,65535,65535,65535,65535,65535,65535,65535,65535,65535,65535,65535,65535,65535,65535,696,692,689,686,683,677,678,677,671,685,696,699,697,696,698,702,702,701,700,700,700,702,65535,65535,65535,65535,65535,65535,65535,65535,65535,65535,65535,65535,65535,65535,65535,65535,65535,65535,65535,65535,65535,65535,65535,65535,65535,65535,65535
65535,65535,65535,65535,65535,65535,65535,65535,65535,65535,65535,65535,65535,65535,65535,65535,65535,65535,65535,65535,65535,65535,65535,65535,65535,65535,65535,65535,65535,65535,65535,65535,65535,65535,65535,65535,65535,65535,65535,65535,65535,65535,65535,696,693,689,686,681,676,674,671,671,689,697,699,699,697,695,698,700,700,699,700,701,65535,65535,65535,65535,65535,65535,65535,65535,65535,65535,65535,65535,65535,65535,65535,65535,65535,65535,65535,65535,65535,65535,65535,65535,65535,65535,65535,65535
65535,65535,65535,65535,65535,65535,65535,65535,65535,65535,65535,65535,65535,65535,65535,65535,65535,65535,65535,65535,65535,65535,65535,65535,65535,65535,65535,65535,65535,65535,65535,65535,65535,65535,65535,65535,65535,65535,65535,65535,65535,65535,65535,696,692,687,683,678,675,675,680,682,689,697,700,699,697,696,696,698,699,700,702,65535,65535,65535,65535,65535,65535,65535,65535,65535,65535,65535,65535,65535,65535,65535,65535,65535,65535,65535,65535,65535,65535,65535,65535,65535,65535,65535,65535,65535
65535,65535,65535,65535,65535,65535,65535,65535,65535,65535,65535,65535,65535,65535,65535,65535,65535,65535,65535,65535,65535,65535,65535,65535,65535,65535,65535,65535,65535,65535,65535,65535,65535,65535,65535,65535,65535,65535,65535,65535,65535,65535,65535,694,691,687,682,678,679,684,689,690,690,696,700,699,701,698,698,699,700,65535,65535,65535,65535,65535,65535,65535,65535,65535,65535,65535,65535,65535,65535,65535,65535,65535,65535,65535,65535,65535,65535,65535,65535,65535,65535,65535,65535,65535,65535,65535
65535,65535,65535,65535,65535,65535,65535,65535,65535,65535,65535,65535,65535,65535,65535,65535,65535,65535,65535,65535,65535,65535,65535,65535,65535,65535,65535,65535,65535,65535,65535,65535,65535,65535,65535,65535,65535,65535,65535,65535,65535,65535,694,690,687,685,681,679,683,688,692,694,693,696,699,701,701,698,699,702,703,65535,65535,65535,65535,65535,65535,65535,65535,65535,65535,65535,65535,65535,65535,65535,65535,65535,65535,65535,65535,65535,65535,65535,65535,65535,65535,65535,65535,65535,65535,65535
65535,65535,65535,65535,65535,65535,65535,65535,65535,65535,65535,65535,65535,65535,65535,65535,65535,65535,65535,65535,65535,65535,65535,65535,65535,65535,65535,65535,65535,65535,65535,65535,65535,65535,65535,65535,65535,65535,65535,65535,65535,65535,692,687,685,683,679,677,681,687,695,697,695,695,701,703,702,699,698,702,65535,65535,65535,65535,65535,65535,65535,65535,65535,65535,65535,65535,65535,65535,65535,65535,65535,65535,65535,65535,65535,65535,65535,65535,65535,65535,65535,65535,65535,65535,65535,65535
65535,65535,65535,65535,65535,65535,65535,65535,65535,65535,65535,65535,65535,65535,65535,65535,65535,65535,65535,65535,65535,65535,65535,65535,65535,65535,65535,65535,65535,65535,65535,65535,65535,65535,65535,65535,65535,65535,65535,65535,65535,65535,65535,687,685,682,677,677,681,688,696,698,694,697,703,707,703,698,698,704,65535,65535,65535,65535,65535,65535,65535,65535,65535,65535,65535,65535,65535,65535,65535,65535,65535,65535,65535,65535,65535,65535,65535,65535,65535,65535,65535,65535,65535,65535,65535,65535
65535,65535,65535,65535,65535,65535,65535,65535,65535,65535,65535,65535,65535,65535,65535,65535,65535,65535,65535,65535,65535,65535,65535,65535,65535,65535,65535,65535,65535,65535,65535,65535,65535,65535,65535,65535,65535,65535,65535,65535,65535,65535,65535,686,684,679,679,683,687,694,699,698,697,699,705,705,702,698,699,65535,65535,65535,65535,65535,65535,65535,65535,65535,65535,65535,65535,65535,65535,65535,65535,65535,65535,65535,65535,65535,65535,65535,65535,65535,65535,65535,65535,65535,65535,65535,65535,65535
65535,65535,65535,65535,65535,65535,65535,65535,65535,65535,65535,65535,65535,65535,65535,65535,65535,65535,65535,65535,65535,65535,65535,65535,65535,65535,65535,65535,65535,65535,65535,65535,65535,65535,65535,65535,65535,65535,65535,65535,65535,65535,65535,682,682,679,685,690,693,696,699,698,698,701,704,704,703,702,65535,65535,65535,65535,65535,65535,65535,65535,65535,65535,65535,65535,65535,65535,65535,65535,65535,65535,65535,65535,65535,65535,65535,65535,65535,65535,65535,65535,65535,65535,65535,65535,65535,65535
65535,65535,65535,65535,65535,65535,65535,65535,65535,65535,65535,65535,65535,65535,65535,65535,65535,65535,65535,65535,65535,65535,65535,65535,65535,65535,65535,65535,65535,65535,65535,65535,65535,65535,65535,65535,65535,65535,65535,65535,65535,65535,65535,681,676,682,689,693,693,695,697,698,699,701,65535,65535,65535,65535,65535,65535,65535,65535,65535,65535,65535,65535,65535,65535,65535,65535,65535,65535,65535,65535,65535,65535,65535,65535,65535,65535,65535,65535,65535,65535,65535,65535,65535,65535,65535,65535,65535,65535
